# .PCD v0.7 - Point Cloud Data file format
VERSION 0.7
FIELDS x y z
SIZE 4 4 4
TYPE F F F
COUNT 1 1 1
WIDTH 1226
HEIGHT 1
VIEWPOINT 0 0 0 1 0 0 0
POINTS 1226
DATA ascii
-0.013328638 0.024350462 -0.00011262635
-0.012669957 0.024453593 -0.00011197722
-0.015083193 0.023360763 -0.0001131692
-0.014941163 0.023224223 -0.00011277467
-0.014557722 0.02372238 -0.00011313113
-0.014752562 0.023549985 -0.0001130685
-0.017085804 0.036748663 -0.00013733038
-0.016839527 0.036692474 -0.00013694039
-0.016357929 0.036473688 -0.00013594364
-0.017049773 0.036549047 -0.00013693876
-0.017179448 0.036167517 -0.00013647706
-0.019855831 0.035472047 -0.00013859419
-0.016558656 0.036633957 -0.00013651245
-0.019943977 0.035094101 -0.00013812317
-0.019182988 0.035955738 -0.00013853598
-0.018453656 0.036194321 -0.00013807241
-0.017100047 0.036285307 -0.00013660558
-0.016683433 0.036531258 -0.00013646483
-0.018249037 0.0355272 -0.0001367284
-0.01672722 0.036107577 -0.00013586099
-0.016072525 0.03640274 -0.00013554632
-0.016776633 0.036122594 -0.0001359348
-0.018620249 0.03402378 -0.00013500627
-0.017063128 0.034719739 -0.00013412605
-0.018612178 0.034799568 -0.00013612129
-0.017186973 0.035186417 -0.0001350079
-0.017562803 0.034901898 -0.00013502699
-0.016801575 0.035555352 -0.00013505865
-0.019676473 0.033753164 -0.00013595517
-0.018011119 0.034564074 -0.00013509556
-0.017238975 0.035525389 -0.00013545749
-0.01755992 0.035311524 -0.00013555551
-0.020049056 0.034068588 -0.00013677974
-0.018134894 0.034709331 -0.00013543933
-0.017902922 0.035043627 -0.00013562071
-0.017817454 0.03478644 -0.00013519416
-0.018656038 0.034711566 -0.00013605517
-0.020092716 0.034503162 -0.00013740628
-0.016289094 0.036066815 -0.00013525726
-0.019199442 0.035003338 -0.00013706286
-0.019983914 0.034682278 -0.00013753446
-0.01616974 0.036067717 -0.00013511151
-0.017793642 0.035540227 -0.00013619591
-0.017599178 0.033678871 -0.00013311312
-0.020221137 0.032493822 -0.00013434852
-0.017476577 0.033644125 -0.00013285689
-0.019312033 0.032574873 -0.00013328611
-0.018914836 0.033130828 -0.00013383699
-0.01979235 0.032581214 -0.00013395993
-0.017268026 0.033902064 -0.00013314199
-0.020170825 0.032445118 -0.00013417646
-0.019920828 0.032824371 -0.00013458764
-0.019153858 0.03351393 -0.00013493455
-0.015586098 0.034603044 -0.00013226084
-0.018479122 0.033575751 -0.00013414805
-0.018775143 0.033497527 -0.00013436622
-0.018953299 0.033631742 -0.00013488194
-0.016200356 0.034091681 -0.0001320889
-0.018128373 0.032969136 -0.00013240485
-0.015698548 0.034042247 -0.00013131194
-0.016206451 0.033573292 -0.0001310556
-0.016564049 0.03352198 -0.00013137027
-0.017386926 0.033052225 -0.00013162405
-0.018650081 0.032672446 -0.00013258809
-0.017164955 0.03359637 -0.00013238785
-0.017113652 0.032799523 -0.00013087003
-0.017155426 0.0329553 -0.00013116992
-0.018870467 0.032001678 -0.00013171521
-0.018409474 0.032356288 -0.00013174664
-0.018800911 0.032104984 -0.00013184163
-0.01971405 0.031670958 -0.00013221463
-0.019609563 0.031923398 -0.00013244897
-0.018009555 0.032644723 -0.00013164442
-0.018611183 0.031874306 -0.000131179
-0.016041387 0.03336966 -0.00013048574
-0.018274339 0.032176793 -0.00013127655
-0.01930319 0.031862717 -0.00013202941
-0.017551966 0.032423846 -0.00013078202
-0.016456326 0.033208225 -0.00013068679
-0.015961954 0.033086717 -0.00012993126
-0.018975208 0.031258643 -0.00013073499
-0.017626587 0.032130137 -0.00013042393
-0.016724782 0.032704014 -0.00013018714
-0.018055201 0.031918205 -0.00013059936
-0.015647246 0.033256058 -0.00012981461
-0.015788678 0.032887727 -0.00012934848
-0.016796475 0.032451194 -0.00012988329
-0.018545981 0.031394854 -0.00013036607
-0.015677504 0.032282818 -0.0001282373
-0.015824703 0.031906128 -0.00012779457
-0.017235309 0.031696048 -0.00012922368
-0.017669808 0.031276755 -0.00012908515
-0.016263148 0.031608965 -0.00012788014
-0.017349828 0.031739101 -0.00012943556
-0.0177387 0.031377036 -0.00012937689
-0.015568823 0.031851321 -0.00012745045
-0.017558249 0.031600945 -0.00012940704
-0.019838052 0.02954576 -0.00012913893
-0.017931761 0.030789915 -0.00012873148
-0.017685995 0.03055466 -0.00012806535
-0.018884568 0.030315537 -0.00012906815
-0.017526284 0.030719792 -0.00012810586
-0.019195929 0.030730313 -0.00013009238
-0.015877254 0.031530429 -0.0001272728
-0.017206393 0.030921167 -0.00012805953
-0.017957637 0.030412655 -0.00012811087
-0.019332776 0.029877737 -0.0001290061
-0.018405458 0.030599715 -0.00012896559
-0.01966753 0.03058093 -0.00013049785
-0.019534307 0.029561393 -0.00012882869
-0.016715145 0.0306811 -0.00012701808
-0.015748803 0.031334024 -0.00012689258
-0.016710119 0.030614987 -0.0001269487
-0.016184978 0.030620201 -0.00012631039
-0.017856959 0.029972047 -0.00012740772
-0.017069435 0.030417152 -0.00012708653
-0.016356507 0.030353766 -0.00012611377
-0.017856909 0.030263409 -0.00012783578
-0.016790582 0.030419845 -0.00012677989
-0.016826959 0.03025377 -0.00012655987
-0.019079752 0.029060513 -0.00012753892
-0.018677013 0.028934786 -0.0001267792
-0.018561568 0.028862353 -0.00012649293
-0.017575933 0.029706823 -0.0001266551
-0.019039702 0.02911461 -0.00012760272
-0.019321064 0.028279917 -0.0001264849
-0.016681962 0.029855805 -0.00012575265
-0.017606972 0.029824585 -0.00012690516
-0.016936209 0.029687902 -0.00012581435
-0.019425659 0.028739803 -0.00012747745
-0.018105468 0.028815754 -0.00012580946
-0.0169622 0.029817373 -0.0001260672
-0.018690111 0.028794523 -0.00012652448
-0.015962122 0.029397141 -0.00012419804
-0.015732976 0.0296457 -0.00012428174
-0.016198207 0.02985505 -0.00012514973
-0.015347224 0.030008292 -0.00012441177
-0.016145736 0.029320255 -0.00012422295
-0.017538562 0.02869677 -0.00012490735
-0.015501929 0.029836923 -0.00012429093
-0.016101081 0.029461 -0.0001243751
-0.0165288 0.029072059 -0.00012434064
-0.016086994 0.029443204 -0.00012437196
-0.016409915 0.028829826 -0.00012379827
-0.017162576 0.028634561 -0.00012436241
-0.015031055 0.029589208 -0.00012334576
-0.018586714 0.027742347 -0.0001246928
-0.018090095 0.027198989 -0.00012321968
-0.017317932 0.028568452 -0.0001244481
-0.018280217 0.027133133 -0.00012333633
-0.01829125 0.027089011 -0.0001233042
-0.017930742 0.027824203 -0.00012404518
-0.017811779 0.027649775 -0.00012356846
-0.018640172 0.027442699 -0.00012428255
-0.019065596 0.027921602 -0.00012555148
-0.018079106 0.027792003 -0.00012411817
-0.014888777 0.029423924 -0.00012286066
-0.014979363 0.029040834 -0.00012234412
-0.016360162 0.028477212 -0.00012321398
-0.014863773 0.029222427 -0.00012247672
-0.014924593 0.028979676 -0.00012213725
-0.017998446 0.027163515 -0.00012302573
-0.01564672 0.028323513 -0.00012196414
-0.016484546 0.027760388 -0.0001220468
-0.01682692 0.027960291 -0.00012287789
-0.015514269 0.027647331 -0.00012089044
-0.014566196 0.028421007 -0.00012079813
-0.016257832 0.027675496 -0.00012172211
-0.01375876 0.028005658 -0.00011943968
-0.015207196 0.027604204 -0.00012050115
-0.015469587 0.028146924 -0.00012145936
-0.014334573 0.028508928 -0.00012063968
-0.015438651 0.027785726 -0.00012095168
-0.014237478 0.027924132 -0.00011982687
-0.01505663 0.027828595 -0.0001205731
-0.017416256 0.026389414 -0.0001211128
-0.014533463 0.027623113 -0.00011972676
-0.017540975 0.025981229 -0.0001206036
-0.018306883 0.026179669 -0.00012182316
-0.017983889 0.02576074 -0.00012074469
-0.017711384 0.026329027 -0.00012133305
-0.01507064 0.027279772 -0.00011980359
-0.013940164 0.027907843 -0.00011955702
-0.018238563 0.026139487 -0.00012167555
-0.01741726 0.02596521 -0.00012038474
-0.017817231 0.025603047 -0.00012026203
-0.017814282 0.026855685 -0.00012231583
-0.015771464 0.027399991 -0.00012082676
-0.014579508 0.02687747 -0.0001183385
-0.014710993 0.027281402 -0.00011935725
-0.014724428 0.027018109 -0.00011883455
-0.016588178 0.026228795 -0.00011983782
-0.01537401 0.026472606 -0.00011861196
-0.01417067 0.027276056 -0.00011855899
-0.015270054 0.026619585 -0.00011878053
-0.017257035 0.025816258 -0.00011991162
-0.014285647 0.026919918 -0.00011798402
-0.014557135 0.026232114 -0.00011720893
-0.016546106 0.025248187 -0.0001180867
-0.015493705 0.026212566 -0.00011833548
-0.017147066 0.024822878 -0.00011815748
-0.016401552 0.02521302 -0.00011783652
-0.015967015 0.025980888 -0.00011855247
-0.014992042 0.026021261 -0.00011741254
-0.014398404 0.026505902 -0.00011745223
-0.016014339 0.025804192 -0.00011832814
-0.016190479 0.025819546 -0.00011859683
-0.017142314 0.025203986 -0.00011872768
-0.017359477 0.025242735 -0.00011909194
-0.01640556 0.025940521 -0.00011901523
-0.014642825 0.026625866 -0.00011791848
-0.013412046 0.026556816 -0.00011643593
-0.014717139 0.025928445 -0.00011696375
-0.014127955 0.026322486 -0.00011686189
-0.015264058 0.025402131 -0.00011684676
-0.013115769 0.02644282 -0.00011601963
-0.012957028 0.026590835 -0.0001160613
-0.013709257 0.026044814 -0.00011608948
-0.013075246 0.026951587 -0.00011661742
-0.015305853 0.025563821 -0.00011713442
-0.012656998 0.026390659 -0.00011541275
-0.013445759 0.02604958 -0.00011582638
-0.012698378 0.026212355 -0.00011515839
-0.016024007 0.024927029 -0.0001170109
-0.012619396 0.02642124 -0.00011547818
-0.013382148 0.025932336 -0.00011546537
-0.016121456 0.023906711 -0.00011536258
-0.016531115 0.024413459 -0.00011671288
-0.0146934 0.024947952 -0.00011539599
-0.015370925 0.024069473 -0.00011472846
-0.014642006 0.024564957 -0.00011467899
-0.012245623 0.025947846 -0.00011409377
-0.013600138 0.025444621 -0.00011490507
-0.014514073 0.024982654 -0.00011525454
-0.013607843 0.025525795 -0.00011502812
-0.015964974 0.023794837 -0.00011494698
-0.013493107 0.025343418 -0.00011457235
-0.014230759 0.02481894 -0.00011458469
-0.016146153 0.023851274 -0.0001153159
-0.016509445 0.024229327 -0.00011638657
-0.012302195 0.025417814 -0.00011315185
-0.014046965 0.02449896 -0.00011372182
-0.013952188 0.024659667 -0.00011397945
-0.012948697 0.025274167 -0.00011378957
-0.012433687 0.02530749 -0.00011309923
-0.012990707 0.02489144 -0.00011304207
-0.012861828 0.024927393 -0.00011297443
-0.013904531 0.02443932 -0.00011340249
-0.012370816 0.025100764 -0.00011264032
-0.014782884 0.024092156 -0.00011400774
0.016162314 0.018000336 3.1833886e-05
0.015761897 0.018085878 3.1277537e-05
0.013511323 0.025303489 8.2853949e-05
0.013103701 0.024670679 5.1819021e-05
0.020499976 0.025227897 4.7328882e-05
0.016831288 0.026907492 3.4506316e-05
0.013873945 0.022824112 -0.00036988023
0.013678037 0.022769043 -4.2826054e-05
0.013028238 0.022582702 -0.00036977092
0.013030417 0.022583628 -0.00015342596
0.015819114 0.018321117 -0.00036372663
0.015358984 0.018450689 -0.00036384631
0.017058821 0.018114178 -0.00034757517
0.015859567 0.018499184 -0.00044249848
0.017809838 0.018349063 -0.00041007902
0.014634226 0.01862327 -3.4686876e-05
0.014527394 0.018798128 -0.00026791857
0.016052222 0.018032378 1.0400196e-05
0.016489109 0.017972527 -6.8333815e-05
0.016958654 0.017958574 -0.00013015291
0.018057505 0.018036271 -2.1026004e-05
0.014529408 0.022453342 -0.00038067647
0.01452976 0.0224154 9.0422109e-06
0.014561724 0.021689659 -0.00042219681
0.014711047 0.021437259 -0.00026266742
0.014956906 0.021021893 -0.00032209069
0.014817367 0.021257671 -0.00026866898
0.012741456 0.023267979 -0.0003345923
0.013153436 0.023987932 -0.00042708812
0.013782297 0.024891574 -0.00047595729
0.01396715 0.025300125 -0.00040657935
0.014029056 0.025421306 -0.00038705429
0.014825024 0.025826931 -0.00047991041
0.015543317 0.026314355 -0.00041903171
0.01322161 0.024604576 -0.00030464132
0.0131996 0.024771664 -7.2790775e-05
0.014055932 0.025672678 -0.00024300977
0.013791784 0.025503151 -0.00010001531
0.014237563 0.025993465 8.1715407e-06
0.015392578 0.026482884 -0.00029785
0.015272041 0.026561342 -9.4927382e-06
0.019180516 0.018738795 -0.00035129825
0.019073121 0.018843731 -0.00040658133
0.0163466 0.026466509 -0.00043727853
0.015964052 0.026371494 -0.00046169513
0.016145743 0.026504576 -0.00041363935
0.019868014 0.01938442 -0.00039384479
0.020821195 0.020387756 -0.00032755989
0.020065216 0.01963377 -0.00040468737
0.021292066 0.021693096 -0.00032097043
0.021043427 0.021359073 -0.00039700547
0.021072486 0.023420312 -0.0003972816
0.021154072 0.02271585 -0.00040315685
0.021117575 0.022486959 -0.0004210124
0.020793613 0.02446699 -0.00035541877
0.020752795 0.024340313 -0.00038857083
0.019354705 0.026012918 -0.0003496164
0.019779788 0.025659071 -0.00037191471
0.019147802 0.025843419 -0.00046666793
0.018531578 0.026473179 -0.00034502626
0.018776441 0.02609483 -0.0004496997
0.016369373 0.026720047 -0.0003243105
0.017257608 0.026830804 -0.00026590726
0.017952256 0.026663445 -0.00030603714
0.017480291 0.026919538 9.6637523e-06
0.01784718 0.02682271 3.5448465e-06
0.0192113 0.026172273 -0.00030642189
0.01951227 0.026077673 -8.3188992e-05
0.02019996 0.025428247 -0.00028535048
0.020890739 0.024682552 2.3374916e-05
0.02127452 0.023276797 -0.00029381434
0.021307595 0.023559378 -3.3473596e-05
0.021352248 0.023425454 -1.7377897e-05
0.021320384 0.021718599 -0.00025703863
0.021443466 0.02227632 -6.2955776e-05
0.021243133 0.021217674 -0.00026106986
0.020755947 0.020048385 -0.00016778067
0.020515023 0.019667815 -7.3584146e-05
0.019960644 0.019104647 -8.5204723e-05
0.020238649 0.019343229 -6.5043569e-06
0.019277414 0.018610867 -0.00011858984
0.018452182 0.018160345 -1.1119759e-05
0.016641283 0.024248183 -0.00012699654
0.016852854 0.024580425 -0.00046821905
0.017220778 0.024224393 -9.1523514e-05
0.017649353 0.024440072 -0.00038339058
0.018243464 0.02391514 -0.00020498515
0.018048435 0.023780201 1.5288941e-05
0.019048879 0.023220379 -0.00047012756
0.01857838 0.023133079 -6.4399792e-06
0.018440129 0.023450078 -5.3286087e-05
0.019113163 0.022225719 -0.00040630088
0.01870138 0.022438826 1.4848192e-05
0.018830718 0.021879796 -0.00014950498
0.018935055 0.021624418 -0.00037119118
0.018599285 0.021051977 -0.00035448768
0.017845862 0.020527065 -0.00034878508
0.018267766 0.020894498 -0.00024729001
0.017840698 0.020892734 -2.2578053e-05
0.016423037 0.024403622 -0.00029576861
0.015481043 0.023934381 -0.00038114248
0.016033823 0.024328718 -0.00043729204
0.015402135 0.023614476 -0.00027167972
0.015164809 0.02348279 -0.00042057177
0.015166486 0.023058522 -0.00020494894
0.015266702 0.022476951 -1.5043188e-05
0.014894327 0.022232456 -0.00040500436
0.015128627 0.022126887 -0.00016375317
0.017385511 0.02037701 -0.00033784448
0.016780909 0.020544378 -0.00015559921
0.016224332 0.020641677 -0.00021697476
0.015894143 0.020681396 -0.00034705747
0.016190559 0.020873614 -2.4719164e-05
0.015480394 0.021212677 -0.0002112122
0.015326171 0.021128353 -0.00039292534
0.015580188 0.021487581 2.3553381e-05
0.01854814 0.021727026 5.2073854e-05
0.017625747 0.020823531 3.7212623e-05
0.015799947 0.021148473 5.8607198e-05
0.017336462 0.020733256 3.9614737e-05
0.019169062 0.025694806 -0.00047497917
0.01947969 0.023797607 -0.00047149218
0.019381922 0.025190515 -0.00047382875
0.01961894 0.024284648 -0.00047214946
0.019267047 0.02476397 -0.00047325063
0.01933589 0.024319528 -0.00047241955
0.019442204 0.025531292 -0.00047442724
0.020203872 0.023720436 -0.00047057099
0.019978784 0.023321908 -0.00047017203
0.020146705 0.024817774 -0.00047253224
0.020162236 0.024490628 -0.00047202257
0.020036053 0.023818493 -0.00047102605
0.020672463 0.02251449 -0.00046823022
0.020307455 0.023160411 -0.00046965375
0.019853707 0.022744864 -0.00046937575
0.020783538 0.022420337 -0.00046795607
0.020994252 0.021992935 -0.00046707247
0.020704566 0.022578301 -0.0004682662
0.020413168 0.021327367 -0.00046663429
0.020018417 0.021785976 -0.00046772673
0.01992519 0.022080803 -0.00046828261
0.020650914 0.021946901 -0.0004673634
0.019264519 0.022943771 -0.00047032011
0.019703362 0.022144824 -0.00046865549
0.019468799 0.022382546 -0.0004691988
0.020015873 0.02137086 -0.00046713173
0.019353881 0.021873496 -0.00046884932
0.019922053 0.019751504 -0.00046483241
0.019302143 0.021048741 -0.00046766677
0.019699063 0.020502906 -0.00046630623
0.019700972 0.020162245 -0.00046571437
0.019495286 0.020683818 -0.00046682963
0.019825146 0.020887563 -0.0004668152
0.018998072 0.020684302 -0.00046753162
0.018774372 0.02084486 -0.00046798203
0.019089848 0.020779502 -0.00046752125
0.019145031 0.019984778 -0.00046612904
0.018264718 0.019970244 -0.00046704779
0.018994626 0.019716626 -0.00046584848
0.018329319 0.020633476 -0.00046819402
0.018264186 0.020437973 -0.0004678627
0.018475866 0.018826615 -0.00046495802
0.018732466 0.018934259 -0.00046482647
0.018746102 0.019167738 -0.00046521111
0.017743101 0.020149736 -0.00046790531
0.018743817 0.019554419 -0.00046576641
0.017749341 0.019891938 -0.00046750554
0.017155955 0.019844132 -0.0004681336
0.017321141 0.019996835 -0.00046813081
0.017128348 0.020209184 -0.00046865933
0.017552728 0.019514298 -0.00046710949
0.017050823 0.018673182 -0.00046651042
0.01691293 0.01863496 -0.00046659261
0.01683444 0.019147163 -0.00046744372
0.016785169 0.018779533 -0.00046692404
0.016493252 0.020098496 -0.00046918157
0.016212614 0.02031051 -0.000469964
0.016517967 0.019839132 -0.00046879589
0.015933292 0.019989785 -0.00047002884
0.015788916 0.019748652 -0.00046991964
0.016294278 0.018713268 -0.00046760251
0.015791206 0.018732296 -0.00046823162
0.015627969 0.019284371 -0.00046940381
0.01580539 0.019694585 -0.0004698257
0.015456925 0.01966976 -0.0004700931
0.015192362 0.019066002 -0.00046949473
0.014800207 0.019373927 -0.00047047646
0.014688255 0.019165246 -0.0004703583
0.014968389 0.019890891 -0.00047097646
0.014635973 0.020343233 -0.00047193363
0.014224252 0.019992353 -0.00047201896
0.014658281 0.020161951 -0.00047171023
0.015077597 0.020879142 -0.00047232595
0.014620667 0.021890204 -0.00047467265
0.01457062 0.022425707 -0.00047565612
0.014303369 0.023909589 -0.00047827896
0.018021272 0.025957499 -0.00047671748
0.019037338 0.023603171 -0.00047166261
0.018285569 0.025168214 -0.00047518744
0.018232763 0.025530674 -0.00047576486
0.01810438 0.025948536 -0.00047666696
0.018382689 0.024948712 -0.00047472119
0.01874708 0.025859751 -0.00047567405
0.019029025 0.024049938 -0.00047235063
0.018382732 0.024473 -0.00047403178
0.01751147 0.025250703 -0.00047648395
0.01694042 0.025909722 -0.00047825731
0.017194001 0.026339604 -0.00047854427
0.018094184 0.024857249 -0.00047502446
0.016677745 0.026314318 -0.00047920039
0.016965462 0.026098214 -0.00047848898
0.016566092 0.025797382 -0.00047867035
0.01796151 0.025300503 -0.00047591166
0.017199393 0.025000507 -0.00047634088
0.017264687 0.024873579 -0.0004760623
0.017162928 0.024762275 -0.00047602376
0.016634822 0.024873059 -0.00047706498
0.016031684 0.025885386 -0.0004794891
0.016187517 0.024852466 -0.00047764648
0.01562488 0.025436468 -0.00047923741
0.015689686 0.025098911 -0.00047860609
0.015930755 0.02533824 -0.00047866011
0.0160545 0.025685271 -0.00047913718
0.01502787 0.025468877 -0.00047998107
0.015306859 0.024194624 -0.00047747674
0.015346589 0.025017902 -0.00047881552
0.01544679 0.024115149 -0.00047718454
0.014821209 0.024339421 -0.0004782615
0.015002416 0.024561344 -0.00047838083
0.014342234 0.024998903 -0.00047986209
0.014957876 0.024920324 -0.00047907734
0.014636688 0.023752816 -0.00047754578
0.014638492 0.023654362 -0.00047745986
0.015010237 0.024034156 -0.00047754694
0.014665861 0.024124419 -0.00047811912
0.014680603 0.023953512 -0.00047777803
0.013817532 0.022828422 -0.00047707895
0.013510688 0.023252415 -0.00047824276
0.013181851 0.022977417 -0.00047802273
0.013650149 0.023642797 -0.00047872961
0.013770686 0.024590144 -0.00047998573
0.013703699 0.024571426 -0.00048006454
0.014404599 0.023296192 -0.0004772169
0.014606398 0.020433901 -0.00032087963
0.01517738 0.020597465 -0.00020913372
0.013103701 0.024670679 5.1819021e-05
0.013550038 0.01953174 9.2873466e-05
0.013873945 0.022824112 -0.00036988023
0.013678037 0.022769043 -4.2826054e-05
0.013028238 0.022582702 -0.00036977092
0.012604522 0.022461871 -0.00014672102
0.013030417 0.022583628 -0.00015342596
0.014264515 0.019052736 -0.0003525943
0.013687328 0.019775169 -0.00039445795
0.013326652 0.019867353 -0.00017421355
0.013914472 0.019115573 2.2989116e-05
0.01357558 0.019533589 -7.7574281e-05
0.014634226 0.01862327 -3.4686876e-05
0.014527394 0.018798128 -0.00026791857
0.014561724 0.021689659 -0.00042219681
0.014711047 0.021437259 -0.00026266742
0.014956906 0.021021893 -0.00032209069
0.014817367 0.021257671 -0.00026866898
0.012662375 0.023192341 -0.00023397023
0.012578794 0.023146644 -3.3441815e-05
0.012741456 0.023267979 -0.0003345923
0.012809357 0.022642897 -0.00044753775
0.013153436 0.023987932 -0.00042708812
0.01322161 0.024604576 -0.00030464132
0.0131996 0.024771664 -7.2790775e-05
0.015627969 0.019284371 -0.00046940381
0.015456925 0.01966976 -0.0004700931
0.015192362 0.019066002 -0.00046949473
0.014800207 0.019373927 -0.00047047646
0.014688255 0.019165246 -0.0004703583
0.014968389 0.019890891 -0.00047097646
0.013918897 0.020084526 -0.00047250034
0.014635973 0.020343233 -0.00047193363
0.014224252 0.019992353 -0.00047201896
0.014658281 0.020161951 -0.00047171023
0.015077597 0.020879142 -0.00047232595
0.014620667 0.021890204 -0.00047467265
0.013817532 0.022828422 -0.00047707895
0.013510688 0.023252415 -0.00047824276
0.013181851 0.022977417 -0.00047802273
0.013650149 0.023642797 -0.00047872961
0.014606398 0.020433901 -0.00032087963
0.013474814 0.020110043 -0.0003068035
0.01517738 0.020597465 -0.00020913372
-0.0022132448 0.022372343 0.0010571177
-0.0026229699 0.022123948 0.00096324174
-0.0025594176 0.022162454 0.00097625772
-0.0016197803 0.022859501 0.00066423253
-0.0021974451 0.022397242 0.00083563215
-0.0024533193 0.022423189 0.0003809784
0.0065483218 0.010619134 0.00094809057
0.0031920143 0.011969973 0.0010355434
0.0036459363 0.011844726 0.00093774928
0.0015372974 0.012259083 0.00095536921
0.0010999821 0.012280344 0.001105699
0.0018189072 0.011214794 -7.0840237e-05
0.0027756756 0.011081231 -6.2601757e-05
0.0040171924 0.010811729 -4.6628178e-05
0.0056399368 0.0099883126 -6.4241467e-05
0.00090018159 0.012006115 0.00023509964
0.0013113983 0.011689491 2.5105081e-05
0.0019769818 0.012173338 0.00083675492
0.0027066823 0.012014698 0.00060863537
0.0016867986 0.012107285 0.0004666748
0.0017586567 0.011964643 0.00027198059
0.002704567 0.011962077 0.00048505259
0.0016639421 0.011781738 0.00011231442
0.0025773803 0.011517758 3.2510841e-05
0.0019540917 0.011555449 -2.9185321e-07
0.0032305559 0.01191683 0.00072212477
0.0040524607 0.011653296 0.00054657913
0.0030615053 0.011836916 0.00041539158
0.004097688 0.011469143 0.000299162
0.0028256597 0.011616293 0.00012339721
0.003692586 0.011370321 0.00012041902
0.003546959 0.011215007 1.8465798e-06
0.0050167851 0.011364593 0.00089280622
0.0044114809 0.011543544 0.00058262062
0.0045276238 0.011407453 0.00043466856
0.0050272257 0.01125832 0.00051018439
0.0047038477 0.011249529 0.00031512789
0.0049211988 0.011010434 0.00017118361
0.0051843976 0.010784989 9.8402612e-05
0.0051436238 0.01057643 -7.0617534e-06
0.0060240226 0.010870173 0.00077190308
0.0066934396 0.010467811 0.00061762513
0.0059737801 0.010714428 0.00037487701
0.0066846753 0.010306847 0.00035397935
0.0059219361 0.010430889 0.00011001772
0.0055755046 0.010478045 2.5527668e-05
0.0062274947 0.010056077 3.9228471e-06
0.0070458935 0.010318118 0.00092843914
0.0071341889 0.0099906446 0.00034191384
0.0073333667 0.009936383 0.00044879568
0.0072682695 0.0097569544 0.0002039675
0.0016279572 0.01058282 -7.2274706e-05
0.0019267711 0.010861442 -7.2367257e-05
0.0024204245 0.010859872 -7.1744784e-05
0.0016581668 0.010115682 -7.1454444e-05
0.00275421 0.010928813 -7.1430695e-05
0.0017616584 0.0099396985 -7.1033835e-05
0.0021059369 0.010440013 -7.1483199e-05
0.0026338799 0.010325473 -7.0554437e-05
0.0033090939 0.010831584 -7.0512993e-05
0.0020268927 0.010431638 -7.1514281e-05
0.0017134323 0.01029397 -7.1658869e-05
0.0031820154 0.010248701 -6.9686677e-05
0.0038711308 0.010728821 -6.9610192e-05
0.0034028492 0.01040716 -6.9670612e-05
0.0040324242 0.010000693 -6.8245339e-05
0.0025899785 0.0098309079 -6.9741625e-05
0.0034097431 0.010226554 -6.9424626e-05
0.0035614606 0.010547213 -6.9693313e-05
0.0035784892 0.010109162 -6.8975147e-05
0.001993008 0.0090133715 -6.9089001e-05
0.003555049 0.0096479189 -6.8196212e-05
0.0055517638 0.0096948184 -6.5843458e-05
0.0048225941 0.0094853127 -6.64033e-05
0.0024405583 0.0081671774 -6.7141373e-05
0.003083809 0.0090602189 -6.7850342e-05
0.0023935107 0.0083010355 -6.7383633e-05
0.0032348724 0.0090919482 -6.7742192e-05
0.0047820443 0.009536854 -6.6532637e-05
0.002205061 0.0082243253 -6.7529385e-05
0.0046748649 0.0092233261 -6.6144392e-05
0.0049096914 0.0096263597 -6.6577806e-05
0.0029129763 0.0084542017 -6.7090616e-05
0.002786299 0.0089470772 -6.8069901e-05
0.0040817279 0.0093123578 -6.6989567e-05
0.0046636313 0.009441128 -6.6531007e-05
0.0032389597 0.0084784105 -6.672414e-05
0.0030106313 0.0079765869 -6.6167326e-05
0.0029208148 0.0078889076 -6.6129258e-05
0.0025366996 0.0078972923 -6.6612381e-05
0.0054958872 0.0094423071 -6.5499917e-05
0.0064038062 0.0094063785 -6.436056e-05
0.0058970698 0.0092563881 -6.4768246e-05
0.0047479258 0.0087666567 -6.5345899e-05
0.0053568906 0.009092832 -6.5128901e-05
0.0050603496 0.0091421092 -6.5571629e-05
0.0061778133 0.0095115704 -6.4831576e-05
0.0035431944 0.008234865 -6.5917615e-05
0.0054204622 0.0093446327 -6.547384e-05
0.0062285857 0.016957713 0.01102615
0.0022508758 0.019520678 0.0096115461
0.0027039768 0.019650884 0.0099063301
0.0027561551 0.019667678 0.010717805
0.0023392304 0.01954679 0.0099661676
0.0026318943 0.019629646 0.0095593762
0.0015957296 0.019334545 0.010235205
0.0011766525 0.019213729 0.0097279437
0.0030521678 0.015830491 0.0095405485
0.0043961438 0.015001055 0.0096313404
0.0039208215 0.015200678 0.0095933266
0.0058829677 0.01481287 0.0096687088
0.0051310686 0.015062477 0.0095454063
0.0025312346 0.016249944 0.0095524583
0.0025311613 0.015922409 0.0096446183
0.0017954311 0.01662956 0.0097529367
0.0025854134 0.015777966 0.0096943211
0.0020195004 0.016309438 0.0098265586
0.0031708425 0.015281708 0.0099697141
0.0036740014 0.015126257 0.0096787838
0.0049236091 0.014659622 0.0099987965
0.004222441 0.014914071 0.0097510256
0.0060268217 0.014730906 0.0098921489
0.0063084094 0.014837302 0.0097128991
0.0075958134 0.022480203 0.0095160976
0.0077622412 0.020497361 0.0095193414
0.0076137017 0.02206493 0.009516784
0.0076797619 0.021778056 0.0095173223
0.0077952975 0.02204833 0.0095170774
0.0083012618 0.021361191 0.0095187658
0.0085592018 0.021512579 0.0095188394
0.0086255185 0.020752503 0.0095201172
0.0085195452 0.021069054 0.0095194513
0.0088612614 0.020947285 0.0095200986
0.0077300584 0.019909652 0.0095202336
0.0085665947 0.021276493 0.0095191784
0.0080407402 0.019782197 0.009520865
0.0091677671 0.020140275 0.0095217479
0.0088702403 0.019604739 0.0095222201
0.0086818691 0.019710312 0.0095217694
0.0080287354 0.019550318 0.0095211565
0.0083720125 0.019803833 0.0095212087
0.0085682301 0.01875185 0.0095231039
0.0085884873 0.018763246 0.0095231105
0.0089294184 0.017969603 0.009524758
0.0086532328 0.018059554 0.0095242215
0.0089839585 0.017522076 0.0095254984
0.0091700666 0.018263707 0.0095246146
0.0083735269 0.018199759 0.0095236721
0.0080221659 0.018532798 0.0095227826
0.0081758499 0.018475741 0.0095229978
0.0083714752 0.017233061 0.0095252143
0.0083395932 0.01702413 0.0095254928
0.0080744792 0.016236968 0.0095263505
0.0080889147 0.017866738 0.0095239216
0.0084310733 0.017031681 0.0095255384
0.0084121022 0.017106358 0.0095253633
0.0075904741 0.018038949 0.0095230918
0.0078954501 0.016371431 0.0095259501
0.007549528 0.018052876 0.0095230602
0.0074573033 0.017033748 0.0095245009
0.007337566 0.016324049 0.0095254174
0.0070624035 0.01712852 0.0095239673
0.0067538749 0.016790694 0.0095241973
0.0073324065 0.016413892 0.009525382
0.0070136869 0.016256414 0.0095252655
0.0071419766 0.015897233 0.0095259622
0.0064017368 0.015728515 0.0095256241
0.0066182995 0.016189456 0.0095250215
0.0072275256 0.01559774 0.009526534
0.0062015071 0.016891088 0.0095234448
0.0056213858 0.016560152 0.009523131
0.0058705248 0.016010182 0.0095243333
0.0057944693 0.016432479 0.0095235966
0.0052714027 0.016800387 0.0095222071
0.0060667549 0.015321251 0.0095256902
0.0056455177 0.015313886 0.0095250988
0.0052592661 0.016559698 0.0095225377
0.0057047196 0.015426006 0.0095250132
0.0054004947 0.0155592 0.0095243305
0.0041752094 0.017178468 0.0095202895
0.0041597397 0.017206902 0.0095202755
0.0043084412 0.016777644 0.0095210858
0.0042143874 0.016711576 0.0095211379
0.0041028927 0.016782366 0.0095209219
0.0045066457 0.015458009 0.0095236143
0.0040442189 0.01556144 0.0095230294
0.0042692311 0.015424028 0.0095235091
0.0037698355 0.017068792 0.00951997
0.0031970311 0.016399739 0.0095202969
0.003072283 0.016052168 0.0095207496
0.0037230188 0.016737876 0.0095204171
0.003528282 0.015994973 0.0095215123
0.0025151405 0.016580956 0.0095190695
0.0034404611 0.017256547 0.0095191598
0.0032633464 0.016744535 0.0095197931
0.0035520752 0.017156553 0.0095194587
0.0035214378 0.017973389 0.0095180357
0.0032586898 0.018885152 0.0095162839
0.0031313044 0.019270202 0.00951578
0.0027436214 0.02067172 0.0095130056
0.0068764617 0.02253839 0.0095150797
0.0072030956 0.021544203 0.0095170541
0.0067356457 0.021784486 0.0095159858
0.0064301463 0.022761429 0.0095141456
0.006833897 0.022674259 0.0095148021
0.0068612518 0.022230355 0.0095155556
0.0066912761 0.022836793 0.0095143374
0.0064768028 0.022662288 0.0095143449
0.0070734252 0.020810608 0.0095180096
0.0057084151 0.021921452 0.0095146773
0.0060241823 0.022156719 0.0095146373
0.0049963044 0.023009831 0.009511984
0.0055331024 0.02303371 0.0095125642
0.0055073351 0.0229377 0.0095127206
0.0060233553 0.021808183 0.0095151989
0.0048361728 0.022825342 0.0095120789
0.005892023 0.022886729 0.0095132086
0.0064085987 0.021163085 0.0095166517
0.0054270602 0.021578396 0.0095146028
0.0045264326 0.022846347 0.0095115835
0.0048952177 0.02197792 0.0095133483
0.0047392556 0.022425879 0.0095124962
0.0042207399 0.022768287 0.0095113982
0.0046724901 0.021567095 0.0095137451
0.0034729643 0.022378977 0.0095110927
0.0041331272 0.022801727 0.0095112417
0.00375283 0.022694167 0.0095109604
0.0046395482 0.021260871 0.0095143002
0.004026582 0.021735802 0.009512742
0.0039231526 0.021905053 0.0095123919
0.0040380415 0.020935498 0.0095141744
0.0027756765 0.021960346 0.009510926
0.0033644382 0.021471974 0.0095125297
0.0031223737 0.021479512 0.0095121572
0.0030052313 0.021805754 0.0095114484
0.0027683328 0.021440465 0.0095117558
0.0026607988 0.021165891 0.0095120668
0.002409294 0.021418871 0.0095113199
0.0026124185 0.02106002 0.0095121888
0.0032484187 0.020189911 0.009514533
0.0023548359 0.02001982 0.0095135821
0.0017699264 0.019604083 0.0095134806
0.0016656877 0.019693865 0.0095132133
0.0016749904 0.019633291 0.0095132943
0.0019631549 0.020658216 0.0095120026
0.0028013568 0.01989346 0.0095142284
0.0022180364 0.020725267 0.0095122233
0.0029728864 0.019415407 0.01017602
0.002990297 0.018654386 0.0096664652
0.0029794988 0.01911952 0.010218129
0.0029922929 0.018552268 0.010002202
0.0029831731 0.018963005 0.010048339
0.0031744195 0.018131267 0.010480491
0.003141528 0.018186865 0.010122367
0.0031216703 0.01822027 0.01074193
0.0034845618 0.017607858 0.010638068
0.003319175 0.017887058 0.0096796229
0.0036223745 0.017375244 0.0095514646
0.0035298702 0.017531289 0.010257562
0.0032527554 0.017999267 0.0095233247
0.0046194065 0.017101349 0.011020771
0.0046591796 0.017283663 0.011020575
0.0040245056 0.017934367 0.011018686
0.0037916175 0.018835172 0.011017033
0.0049571861 0.017026952 0.011021286
0.0058511384 0.017215863 0.011022427
0.0062897075 0.017230477 0.011022969
0.0064412653 0.017361626 0.011022859
0.006346155 0.017549383 0.011022506
0.0069882772 0.0183054 0.011021961
0.0050668209 0.020963198 0.0098662823
0.0050534471 0.020941628 0.0098884609
0.0056035342 0.021053866 0.0097818887
0.0068643708 0.020777583 0.0095683141
0.0061076442 0.021073654 0.0096794469
0.0065168021 0.020786595 0.0097345235
0.0073908605 0.02005248 0.0095552895
0.0072090332 0.020166896 0.0096553853
0.0068415352 0.020231938 0.0099464133
0.0076079732 0.019227121 0.0095332433
0.0072107953 0.018959409 0.0099483328
0.0072815567 0.018779807 0.0098785963
0.0075216703 0.018584922 0.0096182022
0.0069384663 0.018257145 0.0099804467
0.0068694009 0.018094208 0.0099612735
0.0064234897 0.01747687 0.0097808465
0.0061927107 0.017462384 0.0098901037
0.004348285 0.020515418 0.009953781
0.0047335033 0.021112785 0.009628172
0.0042860387 0.020736489 0.0097237993
0.0038900338 0.020282641 0.0097785592
0.0035289377 0.019676421 0.0097570941
0.0037381151 0.019913999 0.0098270439
0.0034031093 0.019521723 0.0096566798
0.0034291311 0.018833997 0.0096725747
0.0032787332 0.019300517 0.0095239375
0.0057414342 0.017206518 0.0097711617
0.0058634458 0.017320495 0.0098866662
0.0051979888 0.017288774 0.0098645501
0.0048004249 0.017095232 0.0096003022
0.0042044134 0.017751513 0.0098928995
0.0041139931 0.017611008 0.0097204959
0.0038486253 0.017688394 0.0095795905
0.0036766906 0.018442905 0.0098273298
0.0071381587 0.018916177 0.011002345
0.0070775654 0.018667296 0.010636783
0.006958582 0.01842585 0.011011025
0.0065218764 0.020473884 0.010331874
0.0063432055 0.020578349 0.010700785
0.0071474267 0.018916162 0.01013992
0.0071409466 0.019370658 0.010155904
0.0070594158 0.019708123 0.010505521
0.0071130721 0.019512795 0.010529838
0.0070689269 0.019717529 0.010027808
0.0069678784 0.01988709 0.010036068
0.0069771605 0.018376263 0.01046925
0.0064852545 0.017802414 0.010243946
0.0062815412 0.017674562 0.010159189
0.006171369 0.017618494 0.01082269
0.0062206541 0.01765129 0.010510706
0.0063463729 0.020586004 0.010392548
0.0063890787 0.020553907 0.010203646
0.0058735991 0.020796152 0.010818952
0.0051642098 0.020822139 0.010687019
0.0057034022 0.020829886 0.010067382
0.0037669525 0.019504169 0.010493601
0.0045585288 0.017700132 0.010838763
0.0040867859 0.018080398 0.010952291
0.0037499187 0.019280767 0.010079998
0.0037346068 0.018948166 0.010439948
0.0038536955 0.018599348 0.01085022
0.0039257407 0.018371191 0.010927345
0.0037938305 0.01859919 0.010063782
0.0038698232 0.018467991 0.010105279
0.0038335589 0.019716408 0.010077232
0.0041686175 0.020313449 0.010419215
0.0048269616 0.020725885 0.010155097
0.0048470865 0.020739317 0.010634121
0.0044921581 0.020500721 0.010798249
0.0043620728 0.017801842 0.010065529
0.0046779197 0.017610652 0.010444044
0.0051055108 0.017461119 0.010567815
0.0053226557 0.017462999 0.010770194
0.0054195989 0.017444398 0.010243136
0.0034339146 0.011923877 0.008301544
0.001206039 0.020447502 0.0097673163
0.00095841347 0.019395081 0.0099357264
0.0011509946 0.019320883 0.0096140746
0.0014689462 0.020054176 0.0095308963
0.0019754483 0.021155616 0.0095168436
0.001582954 0.020953776 0.0096227285
0.0027793325 0.022204088 0.0095370794
0.0027475732 0.022513811 0.0096388254
0.0036310116 0.022815196 0.0095525999
0.0038358085 0.022997791 0.0095861955
0.0012812731 0.020791383 0.0099185305
0.0015121349 0.021220092 0.0099078817
0.002274368 0.022164693 0.0097367559
0.0038896494 0.02324317 0.0097385831
0.0067532491 0.01477993 0.010373839
0.0080315983 0.015403809 0.010068264
0.007743035 0.01526165 0.010329347
0.0073959799 0.015093245 0.010268523
0.0070127607 0.014906839 0.010245298
0.0089278938 0.0162795 0.010240775
0.0099601494 0.019658003 0.010019693
0.0070026028 0.015202975 0.0096210977
0.0073776781 0.015632508 0.0095340675
0.0056311609 0.023379309 0.0096051898
0.005377783 0.023282163 0.0095752496
0.0049249651 0.023414083 0.0096438983
0.0086104721 0.016346689 0.0096135
0.0092029991 0.016996644 0.0096545294
0.0088229189 0.016915172 0.0095369015
0.0095655657 0.018822171 0.0095641604
0.0092776548 0.017876914 0.0095441379
0.0093108853 0.017672624 0.0095773507
0.0095442748 0.020252859 0.0096199736
0.0097404998 0.019432224 0.0096339965
0.0088151302 0.021622751 0.0095874881
0.0092523517 0.020478116 0.0095299892
0.0078543508 0.022636404 0.0096176118
0.0082841907 0.02222015 0.009590704
0.008263615 0.022034487 0.0095378989
0.0059688166 0.023437804 0.0096387751
0.0071651833 0.023048244 0.0096142329
0.0045841211 0.02341686 0.009671133
0.0064897323 0.023397043 0.0097746849
0.0089460667 0.021769214 0.0097594354
0.0094561968 0.021141423 0.009877082
0.0096451715 0.020700373 0.0099708326
0.0098929927 0.01939741 0.0098481579
0.0098354956 0.018380683 0.0098944986
0.0096320473 0.017701752 0.0098274676
0.0094854189 0.017259756 0.0099440832
0.0092877429 0.016887827 0.0098782079
0.0089368774 0.016430473 0.0097855609
0.0081767086 0.015589254 0.0098887682
0.0075791921 0.015258791 0.009865134
0.0079146903 0.015366068 0.0099842967
0.0061217854 0.014685412 0.010342477
0.0035838131 0.015014151 0.010140562
0.0035455788 0.015036302 0.010161736
0.0028799137 0.015429421 0.010059111
0.0052197967 0.014586635 0.010070307
0.0044960878 0.014739676 0.010242806
0.004007549 0.014844309 0.010182848
0.005128915 0.01460427 0.010294257
0.0020238422 0.0168564 0.010238138
0.0021567959 0.016893076 0.0095835095
0.0022617579 0.01692375 0.0099569391
0.0036027804 0.017309261 0.010696673
0.00274744 0.017063085 0.010079138
0.0035484349 0.017294182 0.010866524
0.0032655369 0.017210452 0.0096357213
0.0023296319 0.016944725 0.010263709
0.0033909376 0.01724921 0.010863046
0.0020069664 0.016851751 0.010213011
0.00030955538 0.0061897156 0.00031329005
-0.00036033249 0.0060958611 0.0003543616
0.0018936378 0.0062094154 8.41734e-05
0.0019288458 0.0063224877 -3.5870937e-05
0.0011990423 0.0064498372 -9.9368626e-06
0.002881432 0.0059103328 5.2403193e-05
0.0027160789 0.0058911298 0.00013302657
0.0015308047 0.0060227625 0.00034986401
0.003753467 0.0054011578 9.822537e-05
0.0028454701 0.0055752015 0.00037591037
0.0029968405 0.0054653287 0.00041938247
0.0047978191 0.0047501759 -1.7053448e-05
0.0033512767 0.005371714 0.00033317646
0.0041234833 0.0052573541 2.8945156e-05
0.0048378077 0.0042183069 0.00033293135
0.0048484467 0.0046677887 1.3593002e-05
-0.00060467445 0.00608953 0.0003393548
-0.00034381988 0.0064465445 1.5465776e-06
-0.0010316196 0.0060256161 0.00030938437
-0.0015734097 0.0061608828 4.8691873e-05
0.005326347 0.0037494136 0.00026687677
0.0053404341 0.0037834076 0.000234159
0.0056606219 0.0035841013 8.6199609e-05
0.005839271 0.0027912471 0.00035098416
0.0055395071 0.0033574922 0.00030952721
0.0062154504 0.0029435139 -5.4376898e-05
0.0061402014 0.0020509355 0.00035917619
-0.0055714883 0.0023280168 0.0001620095
-0.0056530042 0.0021908081 0.00013946905
-0.0056460514 0.0018963467 0.00025713933
-0.0059965975 0.0012779137 6.0597202e-05
-0.0059016743 0.0014274019 0.00011815986
-0.0057793087 0.00070630689 0.00037174439
-0.006231871 0.00017760869 -3.9208913e-05
-0.0057689962 -0.00053694186 0.00040261447
-0.0061268271 -0.00022537119 6.7512156e-05
-0.0060193241 -0.0007913711 0.00013224606
-0.00600849 -0.0012056117 8.3609368e-05
-0.0059157023 -0.0018765866 1.8391875e-05
-0.005936271 -0.0015425091 7.602491e-05
-0.0053389515 0.0022676731 0.00040143298
-0.0052299649 0.0030274296 0.00017734396
-0.0051337271 0.0035469509 -1.4161109e-05
-0.0049904082 0.0036440073 5.760428e-05
-0.0047952151 0.0039879251 6.5617496e-06
-0.0045212377 0.0037567427 0.0003681255
-0.0041106883 0.004350137 0.0002933956
-0.0039238958 0.0048480099 4.050287e-05
-0.0034189338 0.004855046 0.00036580826
-0.0033947395 0.0049976725 0.0002721526
-0.00325432 0.0051620449 0.00021418405
-0.0027997601 0.005276985 0.00035419059
-0.0019824463 0.0059826067 7.2300667e-05
-0.0024654777 0.0054912781 0.00034296652
-0.0016897985 0.0058076661 0.00034732436
0.0062709041 -0.0020985915 0.00025039201
0.0062849615 -0.0019971516 0.0002761815
0.0062046493 -0.0017510673 0.00041537324
0.0064816489 -0.0012656467 0.00025903102
0.0066889036 -0.00097289006 0.00011486624
0.0066689923 -0.00092961319 0.00013806857
0.0067791282 -0.00050250976 6.1377767e-05
0.006605716 4.9653347e-05 0.00026397052
0.0065312982 0.00054930279 0.00029863935
0.0066277562 0.00051502499 0.0002050632
0.0063152327 0.001486623 0.00035068288
0.0063718581 0.0018075274 0.00022010435
0.0065142154 0.00140206 0.00017674558
0.0060971105 -0.0026276268 0.00020852545
0.0059540793 -0.0030760472 0.00014488178
0.0059585553 -0.0032467323 5.1991665e-05
0.0053696823 -0.0034958108 0.00042395142
0.0051606786 -0.0042118458 0.0001437671
0.0047533475 -0.0044206833 0.00031748327
0.0049515697 -0.0039956151 0.00044299377
0.0044600717 -0.0049448865 0.00011400477
0.004311542 -0.0051011327 9.1576017e-05
0.004074309 -0.0052661048 0.00011390034
0.0037874919 -0.0053089364 0.00022684928
0.0033390718 -0.0058715944 -1.9440777e-05
0.0027482829 -0.0059783277 0.00011340523
0.0027951321 -0.0060049435 7.077714e-05
0.0026619264 -0.0058921021 0.00022613589
-0.001745231 -0.0061643342 7.1880058e-05
-0.0012785804 -0.0060218414 0.0003310038
-0.0016245218 -0.0061343866 0.00014025625
-0.00072747213 -0.0063300896 0.0001611159
-0.00039912274 -0.0062899501 0.00023538311
-0.00032207434 -0.0061906739 0.00034061301
-8.8649278e-05 -0.0064544994 9.6553995e-05
0.00063792639 -0.0063812416 0.00017846999
0.00099915545 -0.0062543834 0.0002773439
0.00087978103 -0.0063894847 0.00015180919
0.0018781229 -0.0060587618 0.00031158474
0.0022144963 -0.0058981371 0.00038990373
0.0014735665 -0.0064569097 1.812703e-05
-0.0020076034 -0.0056549609 0.00044072221
-0.003305577 -0.0053949668 5.5216602e-05
-0.0027154891 -0.0053262725 0.00042414851
-0.003356331 -0.0053353878 7.9408288e-05
-0.0038982504 -0.0050153797 -8.1557082e-06
-0.0036671811 -0.0046310495 0.00043541775
-0.0045274775 -0.0041143345 0.00018153928
-0.0047704796 -0.0040982235 6.1098253e-06
-0.0046088002 -0.0039554751 0.00022242271
-0.0052028205 -0.0032655171 0.00011780194
-0.0049835914 -0.0038783629 -1.4826073e-05
-0.0050971201 -0.003089282 0.00030003185
-0.0057876687 -0.0023197411 -5.3362455e-06
-0.0053104111 -0.002742284 0.00027658395
-0.0055394457 -0.0023479734 0.00021431653
0.004908157 0.0039730556 0.00088869
0.0047193198 0.0041905139 0.00052166381
0.0043732678 0.0045178044 0.00099045876
0.004094806 0.0047522234 0.00069227762
0.0037332356 0.0050152196 0.0005098501
0.0036491281 0.0050696931 0.00071219
0.003083356 0.0054050116 0.00085111643
0.0025975453 0.0056136297 0.00056816929
0.0021912979 0.0057759611 0.00062739023
0.0021970181 0.0057755257 0.00053475256
0.0019708953 0.0058362084 0.00082411274
0.0015268258 0.0059416862 0.00085455331
0.00049022841 0.0060577509 0.00044979627
0.0010024749 0.0060208929 0.00065788894
0.00015689785 0.0060624778 0.0010469593
0.00059410476 0.0060556484 0.00096829509
-0.00015217216 0.0060455706 0.0010733342
-7.7369565e-05 0.0060435585 0.00068000401
-0.00063639483 0.0059882333 0.00075805094
-0.002543614 0.0053473227 0.00074805983
-0.0024641594 0.0053852019 0.00089636061
-0.0030333716 0.005059198 0.0010176015
-0.0024683406 0.0053910785 0.00048034725
-0.0033250607 0.0048423465 0.0010884992
-0.0031441972 0.0049821376 0.00088830938
-0.0038029659 0.0044452678 0.00055363507
-0.0036192762 0.0046085296 0.0007999544
-0.0041537434 0.0040944279 0.001081059
-0.0042511043 0.0039852015 0.00075896166
-0.0043821251 0.0038367449 0.0009269428
-0.0050244937 0.0028979003 0.00097942329
-0.0051158145 0.0027213171 0.00057156855
-0.0053457092 0.0021743271 0.0005168161
-0.0054151178 0.0020166398 0.00075854117
-0.0055038445 0.0017274423 0.00099975883
-0.0055112159 0.0017175706 0.00058367167
-0.0056889812 0.00097430055 0.00093200081
-0.0057626227 0.00018271868 0.00088562025
-0.0057584126 0.00018050245 0.00045514043
-0.0057495334 -0.00036161605 0.0010075025
-0.0057331091 -0.00057784322 0.00064240675
-0.0057425541 -0.00047350142 0.00085549144
-0.00078966992 0.0059600845 0.00060165848
-0.0010053089 0.0059175431 0.0010479608
-0.0015311232 0.0057690986 0.0010138117
-0.0016828922 0.0057251258 0.00065738184
-0.001816735 0.0056754956 0.00090448238
0.0056642001 0.0028996535 0.00094441383
0.0054244446 0.0032896064 0.00077152718
0.0059132855 0.002365066 0.00090714043
0.0060042432 0.0021499263 0.00050901063
0.0059703002 0.0022274526 0.0010045735
-0.0056427526 -0.0012175536 0.0010418254
-0.0055625937 -0.0015569848 0.00061049539
-0.0055903727 -0.0014422484 0.00088608824
-0.004562045 -0.0036766967 0.0010272105
-0.0043695942 -0.0038978523 0.00057329587
-0.0039704056 -0.0043590697 0.0007644071
-0.002703574 -0.0053092213 0.00094958185
-0.0026232526 -0.0053579547 0.00076205505
-0.002250067 -0.0055479957 0.00067715475
-0.0020067892 -0.0056537315 0.0010015303
-0.0015321991 -0.0058333087 0.00087569072
-0.0011418259 -0.0059379833 0.0008738105
-0.0012399638 -0.0059094895 0.00055251591
-0.00082133617 -0.0060113985 0.0008215647
-0.00049350352 -0.0060659987 0.00052079884
0.0005502461 -0.0061141741 0.0005867366
0.0032982093 -0.0053402036 0.00048150646
0.0041298438 -0.004783351 0.00072073645
0.0041010203 -0.0048037344 0.00052783347
0.0052067228 -0.0036827866 0.00063811085
0.0050627557 -0.003847006 0.00046138943
0.0054045939 -0.003388698 0.00087814877
0.0054254322 -0.003351209 0.00066831295
0.0057705203 -0.0027641589 0.00075821899
0.0060146679 -0.0021876367 0.00050983985
0.0061764303 -0.001710201 0.00085013622
0.0063437116 -0.0010201421 0.00063593546
0.0062747644 -0.0013040481 0.00058363617
0.0063654981 -0.00078565814 0.00083119574
0.0063428092 -0.0010043464 0.00082773564
0.0063973204 -0.00042477314 0.00087866385
0.0063669598 0.00073878351 0.00085675961
0.0019971423 -0.0058838418 0.00049310364
0.001574866 -0.0059906989 0.00086395128
0.0022414613 -0.0058192536 0.0005649568
0.0028702598 -0.0055628098 0.00071997085
-0.0049105301 -0.0031252664 0.00061360886
-0.0048488677 -0.0032258355 0.00057583337
-0.0051574418 -0.0026820754 0.00073486683
-0.0051730485 -0.0026415328 0.001029711
0.0062281457 0.001434118 0.0010092631
0.0061950958 0.0015704546 0.00049504772
-0.0093625253 -0.0076824874 0.0010401054
-0.0079262508 -0.0091904514 0.001005249
-0.0069894665 -0.009956874 0.00097935088
0.011572302 0.0050639124 0.00096176588
0.0097913295 0.0078759221 0.0010153997
0.0065483218 0.010619134 0.00094809057
0.0031920143 0.011969973 0.0010355434
0.0036459363 0.011844726 0.00093774928
0.0015372974 0.012259083 0.00095536921
0.00047659606 0.012303286 0.0010978286
0.0003915471 0.012306518 0.0011341504
0.0010999821 0.012280344 0.001105699
-0.00038668609 0.012283151 0.0011753753
-0.00030418899 0.012289464 0.0010123232
-0.00030921175 0.012288904 0.00098605826
-0.0019197837 0.012095382 0.0010282662
-0.0020516575 0.012069256 0.00094938133
-0.0025407076 0.011972499 0.0010131679
-0.0045222244 0.011312223 0.0011607107
-0.0053110253 0.010951621 0.0010906192
-0.0066778478 0.010144039 0.00093356031
-0.0057954895 0.010678824 0.001032758
-0.0063611232 0.010336199 0.0010000307
-0.006877237 0.0099892039 0.00096488924
-0.0074221473 0.0095656952 0.00099709956
-0.0075160125 0.0094928127 0.0010255752
-0.0087036863 0.0083847903 0.0011827184
-0.0082150251 0.008865512 0.00099139044
-0.0081203245 0.0089593222 0.0011326254
-0.0091411099 0.0078739887 0.00093378569
-0.009448613 0.0074925311 0.0011850204
-0.010139806 0.0064917109 0.00121706
-0.010630595 0.0056419787 0.0010015713
-0.011200076 0.00437694 0.0011233134
-0.011263507 0.0041913921 0.001217464
-0.011830006 0.0020976807 0.0010653078
-0.011994353 -0.00067029969 0.0010187156
-0.011877484 -0.0018001947 0.0011695353
-0.011911046 -0.0015555982 0.0011438513
-0.011863586 -0.0019006392 0.001128241
-0.011754402 -0.0025651588 0.0010557346
-0.011735737 -0.0026379933 0.0011600383
-0.011596463 -0.0031763739 0.00096726354
-0.010298498 -0.0045204214 -2.2922759e-05
0.011655265 0.0025015422 7.2729308e-06
0.011560606 0.0014888947 -4.3814769e-05
0.011703492 0.0005169877 -3.3294316e-05
0.011637405 -0.0012665761 -3.1469041e-05
0.011494752 -0.0024775285 -1.9416912e-05
0.011175429 -0.0035993243 -2.117164e-05
-0.0052989153 -0.0099495007 -3.5776873e-05
-0.006028173 -0.0095595131 -2.5510322e-05
-0.007276332 -0.0087181991 -1.0746415e-05
-0.0081101637 -0.0076669753 -4.5263325e-05
-0.009086078 -0.0064803371 -4.2725704e-05
-0.0094965976 -0.0057681426 -5.1954761e-05
-0.01106616 -0.0046634334 0.00076975627
-0.01136746 -0.0038299772 0.00065825111
-0.01081803 -0.004997713 0.00045484304
-0.010859368 -0.0049030441 0.00046083593
-0.010934864 -0.0044373549 0.00031206501
-0.010832668 -0.0044414485 0.00020369404
-0.010859862 -0.0041149277 0.00014080893
-0.010619515 -0.0036491042 -2.8236886e-05
