# .PCD v0.7 - Point Cloud Data file format
VERSION 0.7
FIELDS x y z intensity
SIZE 4 4 4 4
TYPE F F F F
COUNT 1 1 1 1
WIDTH 1124
HEIGHT 1
VIEWPOINT 0 0 0 1 0 0 0
POINTS 1124
DATA ascii
0.0052110208 0.044009272 -0.00023275334 0
0.0060570086 0.04385227 -0.00022714445 0
-0.0039123339 0.044625964 -0.00018203678 0
-0.0032000931 0.044579625 -0.00021968037 0
-0.0025557387 0.044575676 -0.0002300851 0
-0.001875605 0.044528067 -0.00023041712 0
-0.00096704956 0.044870682 -0.00023097778 0
-0.00038998615 0.044671267 -0.0002309205 0
0.00039065917 0.044675887 -0.00023094751 0
0.0011692251 0.04477334 -0.00023147231 0
0.0017626206 0.044744819 -0.00023175916 0
0.0024469441 0.04464601 -0.00023184065 0
0.0030168146 0.044523876 -0.00023195334 0
0.0037220088 0.044770159 -0.00022968976 0
0.0044575841 0.044762831 -0.00020828983 0
0.0053778803 0.044487841 -0.00020507164 0
-0.0010519624 0.045281928 -0.00020802254 0
-0.0003803423 0.045246139 -0.00021194667 0
0.00018465449 0.04532633 -0.00021667313 0
0.0010097905 0.045523085 -0.00019513629 0
0.0016829646 0.045513004 -0.00018940819 0
0.002568265 0.045352124 -0.00020004483 0
0.0030720478 0.045277707 -0.00018463098 0
-0.0072308071 0.0089377603 -3.7915073e-05 0
-0.0086549334 0.0076142633 -1.2867153e-05 0
-0.0072308071 0.0089377603 -3.7915073e-05 0
-0.0050416901 0.027827311 -0.00022081845 0
-0.0043659615 0.027832964 -0.00022102008 0
-0.0039456561 0.027813997 -0.000221211 0
-0.0031654602 0.027683359 -0.00022140052 0
-0.0023818775 0.027859662 -0.00021550665 0
-0.0017403215 0.027731467 -0.00019577472 0
-0.00098444964 0.027857687 -4.1192397e-06 0
-0.00036846747 0.027943652 0.00020727981 0
0.0024036879 0.027936187 5.4916367e-05 0
0.0039004546 0.027955664 -0.00022427412 0
-0.0048148981 0.028447792 -0.00022135908 0
-0.0037385782 0.028575409 -0.0002218578 0
-0.0031397641 0.028555956 -0.00017491356 0
-0.0026296736 0.02862763 5.5075623e-05 0
-0.0017595198 0.028272204 0.00012520421 0
-0.0012854922 0.028251776 0.00036964286 0
0.0026654052 0.028233889 0.00037456956 0
0.0031463387 0.02828463 0.00017533172 0
0.0039259549 0.028544309 5.0651841e-05 0
0.0046037366 0.028581638 -0.00019969279 0
0.0051985523 0.028494 -0.00022504106 0
0.0058673685 0.028767128 -0.00022545736 0
0.0067931782 0.028633881 -0.00022571348 0
-0.0045802062 0.029159173 -0.00022186898 0
-0.0037717454 0.02922928 -0.00016270857 0
-0.0030508861 0.029187735 0.00029440783 0
0.004631462 0.02900913 1.4795922e-05 0
0.0053282585 0.029358279 -0.00010746624 0
0.0058592479 0.029213969 -0.00022568833 0
0.0065348819 0.029175475 -0.00022590579 0
0.0052566682 0.029708214 0.00010402314 0
0.0059199552 0.029901801 -0.0001772223 0
0.0066546076 0.029884603 -0.00022637006 0
-0.0050416901 0.027827311 -0.00022081845 0
-0.0043659615 0.027832964 -0.00022102008 0
-0.0039456561 0.027813997 -0.000221211 0
-0.0031654602 0.027683359 -0.00022140052 0
-0.0023818775 0.027859662 -0.00021550665 0
-0.0017403215 0.027731467 -0.00019577472 0
-0.00098444964 0.027857687 -4.1192397e-06 0
-0.00036846747 0.027943652 0.00020727981 0
0.0024036879 0.027936187 5.4916367e-05 0
0.0039004546 0.027955664 -0.00022427412 0
-0.0048148981 0.028447792 -0.00022135908 0
-0.0037385782 0.028575409 -0.0002218578 0
-0.0031397641 0.028555956 -0.00017491356 0
-0.0026296736 0.02862763 5.5075623e-05 0
-0.0017595198 0.028272204 0.00012520421 0
-0.0012854922 0.028251776 0.00036964286 0
0.0026654052 0.028233889 0.00037456956 0
0.0031463387 0.02828463 0.00017533172 0
0.0039259549 0.028544309 5.0651841e-05 0
0.0046037366 0.028581638 -0.00019969279 0
0.0051985523 0.028494 -0.00022504106 0
0.0058673685 0.028767128 -0.00022545736 0
0.0067931782 0.028633881 -0.00022571348 0
-0.0045802062 0.029159173 -0.00022186898 0
-0.0037717454 0.02922928 -0.00016270857 0
-0.0030508861 0.029187735 0.00029440783 0
0.004631462 0.02900913 1.4795922e-05 0
0.0053282585 0.029358279 -0.00010746624 0
0.0058592479 0.029213969 -0.00022568833 0
0.0065348819 0.029175475 -0.00022590579 0
-0.0044652917 0.029907174 -0.00017302204 0
-0.0040368033 0.029988948 0.00015151687 0
0.0052566682 0.029708214 0.00010402314 0
0.0059199552 0.029901801 -0.0001772223 0
0.0066546076 0.029884603 -0.00022637006 0
-0.0050167348 0.030552311 -0.00022234209 0
-0.0046431785 0.030674567 6.5365806e-05 0
0.0061477623 0.030684734 -2.2070482e-05 0
0.0065339226 0.03051299 -0.0002267356 0
-0.0047695241 0.031092616 0.00017490983 0
0.0061371825 0.031186376 0.00027701538 0
0.0066013583 0.031342227 -6.4619817e-05 0
0.0066600344 0.032218114 0.00015095994 0
0.0068835388 0.032589279 1.1848286e-05 0
0.006920096 0.033929452 0.00013791025 0
0.0068473876 0.034816466 0.00020423625 0
-0.0052619763 0.035456657 0.00022527203 0
0.0068694223 0.035520323 1.5124679e-06 0
-0.005162776 0.036240906 7.9602003e-05 0
0.0066277967 0.03622134 3.0477531e-05 0
-0.0050991382 0.037036635 -0.00015829504 0
-0.0045685191 0.037226252 0.00018013455 0
0.0061055222 0.037092123 0.00015536137 0
0.0065275594 0.036913499 -9.8535791e-05 0
-0.0051697404 0.037559383 -0.00022493303 0
-0.0046398547 0.037711538 -0.00013193488 0
0.0055769081 0.037945174 9.270478e-05 0
0.0059960363 0.037765905 -0.00010566507 0
0.0066460581 0.037507892 -0.00022992119 0
-0.0052958545 0.038432028 -0.00022581592 0
-0.0045894105 0.038338818 -0.00020457897 0
-0.0038311703 0.038271517 0.00013639592 0
0.0048799124 0.038599931 0.00015188381 0
0.0052374057 0.038431946 6.0908496e-05 0
0.0060576024 0.03834267 -0.00020476617 0
0.0065818485 0.038556535 -0.00023034355 0
-0.0053638727 0.039165691 -0.00022614701 0
-0.0046059969 0.038941421 -0.00022627693 0
-0.0037417754 0.039027631 -0.00019505573 0
-0.0031915365 0.038992353 6.0384162e-05 0
-0.0025749761 0.0391941 0.00025559869 0
0.0045447983 0.039032973 3.8290396e-05 0
0.0053041489 0.039126813 -0.00023007626 0
0.0060175555 0.039280191 -0.00023041898 0
-0.0052529559 0.039816856 -0.00022650184 0
-0.0046389932 0.039757468 -0.00022669742 0
-0.0038507779 0.039597213 -0.00022693723 0
-0.0031285689 0.039654795 -0.00022402918 0
-0.0023326678 0.039749973 -0.00010989141 0
-0.0017954744 0.039765321 8.9833513e-05 0
-0.0011988082 0.039820284 0.00023860857 0
-0.00026533875 0.040055603 0.0002862839 0
0.00013104553 0.040068749 0.00027741585 0
0.0024225982 0.039964549 0.0001818873 0
0.0032222739 0.039656099 0.00019819941 0
0.0039054574 0.039497759 -7.0184469e-06 0
0.0047967238 0.039764639 -0.00023026345 0
0.0051253075 0.039847694 -0.0002304255 0
0.0060226289 0.039673783 -0.00023067789 0
0.0066111344 0.039662831 -0.00023085298 0
-0.0051009795 0.040392645 -0.00022684457 0
-0.0045318636 0.040377997 -0.00022705458 0
-0.0038858114 0.040484495 -0.00022736937 0
-0.0033677581 0.040448438 -0.00022753328 0
-0.0023012059 0.040220328 -0.00022777403 0
-0.0017142452 0.040440582 -0.00020299759 0
-0.0010905406 0.040438697 -0.00016495492 0
-0.00037174887 0.04054866 -0.00019595213 0
0.00039137364 0.04048736 -8.9815818e-05 0
0.0010497333 0.040310811 3.782846e-05 0
0.001744353 0.04037562 -7.729046e-05 0
0.002422434 0.040383123 -0.00016181637 0
0.0031854687 0.040431596 -0.00023005204 0
0.0037076413 0.040333733 -0.0002302411 0
0.0046645631 0.040460639 -0.00023062341 0
0.0050638835 0.040437005 -0.00023075705 0
0.0060884021 0.040487118 -0.0002311673 0
0.0064533385 0.040502965 -0.00023133773 0
0.0031774864 0.040951695 -0.0002302886 0
0.0036600477 0.040971808 -0.00023048138 0
0.0054205218 0.041119266 -0.00023122551 0
0.0060700201 0.041135687 -0.00023148116 0
-0.0050248369 0.031926535 0.00059710257 0
-0.0036432494 0.038270019 0.00063280761 0
-0.0029417893 0.038887121 0.00062273908 0
-0.0025877524 0.039126411 0.00062047504 0
-0.021412436 0.013038186 -0.00060782628 0
-0.020418592 0.013145068 -0.00060823606 0
-0.019995118 0.013231095 -0.00060845725 0
-0.019005222 0.013091451 -0.00060879206 0
-0.018324492 0.012972761 -0.00060895784 0
-0.017959498 0.012923009 -0.00060905376 0
-0.016396331 0.013177583 -0.00060976902 0
-0.015689826 0.013106285 -0.00061001489 0
-0.014961977 0.013189573 -0.0006103171 0
-0.014308382 0.013073729 -0.00056720432 0
-0.02125236 0.013741707 -0.0005825907 0
-0.020794755 0.013620122 -0.00057071261 0
-0.019897509 0.013620654 -0.00048782723 0
-0.019054722 0.013537248 -0.00049313111 0
-0.018550765 0.013521703 -0.00058016554 0
-0.017710015 0.013862131 -0.00048046093 0
-0.017150017 0.013732852 -0.00060974713 0
-0.01634321 0.013793821 -0.00061009265 0
-0.015770514 0.013785499 -0.00061031291 0
-0.015039319 0.013795865 -0.00061058393 0
-0.014418302 0.013697464 -0.0006107497 0
-0.021361487 0.01426108 -0.00048740674 0
-0.017262358 0.014317833 -0.00034332275 0
-0.016276186 0.014633002 -0.00060318178 0
-0.015849354 0.014381649 -0.00061056809 0
-0.014874659 0.014590867 -0.00061102724 0
-0.014209101 0.01437415 -0.00061114505 0
-0.01503191 0.015103323 -0.00061122049 0
-0.014378173 0.01505282 -0.0006114128 0
-0.020451616 0.014130862 0.00033806171 0
-0.019869961 0.013960487 -6.8230554e-05 0
-0.019227242 0.01391322 3.88138e-05 0
-0.018630739 0.013994684 0.00011561252 0
-0.01808727 0.0141117 0.00024143513 0
-0.021271819 0.0146592 0.00011190027 0
-0.020606197 0.014215579 2.3194589e-05 0
-0.017636573 0.014325071 6.0829334e-05 0
-0.017259171 0.014502508 -6.809365e-05 0
-0.016832769 0.014917581 0.00025417563 0
-0.0185405 0.013828277 0.00076267589 0
-0.021336624 0.014430554 0.0008498216 0
-0.020843614 0.014389057 0.00059883203 0
-0.017711807 0.014274577 0.0007235473 0
-0.02195094 0.013089109 -0.00060765026 0
-0.021412436 0.013038186 -0.00060782628 0
-0.020418592 0.013145068 -0.00060823606 0
-0.019995118 0.013231095 -0.00060845725 0
-0.019005222 0.013091451 -0.00060879206 0
-0.018324492 0.012972761 -0.00060895784 0
-0.017959498 0.012923009 -0.00060905376 0
-0.016396331 0.013177583 -0.00060976902 0
-0.015689826 0.013106285 -0.00061001489 0
-0.014961977 0.013189573 -0.0006103171 0
-0.014308382 0.013073729 -0.00056720432 0
-0.021854784 0.013676078 -0.00060796691 0
-0.02125236 0.013741707 -0.0005825907 0
-0.020794755 0.013620122 -0.00057071261 0
-0.019897509 0.013620654 -0.00048782723 0
-0.019054722 0.013537248 -0.00049313111 0
-0.018550765 0.013521703 -0.00058016554 0
-0.017710015 0.013862131 -0.00048046093 0
-0.017150017 0.013732852 -0.00060974713 0
-0.01634321 0.013793821 -0.00061009265 0
-0.015770514 0.013785499 -0.00061031291 0
-0.015039319 0.013795865 -0.00061058393 0
-0.014418302 0.013697464 -0.0006107497 0
-0.021974137 0.014579375 -0.00053995708 0
-0.021361487 0.01426108 -0.00048740674 0
-0.017262358 0.014317833 -0.00034332275 0
-0.016276186 0.014633002 -0.00060318178 0
-0.015849354 0.014381649 -0.00061056809 0
-0.014874659 0.014590867 -0.00061102724 0
-0.014209101 0.01437415 -0.00061114505 0
-0.021917317 0.01489645 -0.00039423537 0
-0.01633144 0.015143102 -0.00042213919 0
-0.015704198 0.015217331 -0.0006110291 0
-0.01503191 0.015103323 -0.00061122049 0
-0.014378173 0.01505282 -0.0006114128 0
-0.022540785 0.015828546 -0.00045854226 0
-0.015881889 0.015853735 -0.00047125714 0
-0.015061032 0.015865307 -0.00061157718 0
-0.014354446 0.015960548 -0.00061185053 0
-0.015708948 0.016704172 -0.00044084387 0
-0.015086407 0.016584443 -0.00061191339 0
-0.014228906 0.016666353 -0.00061223423 0
-0.015602896 0.017405689 -0.0004999768 0
-0.015036304 0.017249119 -0.00061224774 0
-0.014392759 0.017231138 -0.00061245542 0
-0.015843358 0.017816642 -0.00036080321 0
-0.014935598 0.017989041 -0.00061263051 0
-0.014416089 0.017871572 -0.00061275857 0
-0.022700198 0.018573672 -0.00059130369 0
-0.022215873 0.018909167 -0.00039245654 0
-0.015734348 0.01856737 -0.00056254258 0
-0.014963185 0.018630302 -0.00061292108 0
-0.014301327 0.018658405 -0.00061316183 0
-0.02277516 0.0192107 -0.00061027752 0
-0.021984648 0.019290084 -0.00043596886 0
-0.016303366 0.019378077 -0.00057778461 0
-0.015804861 0.019444279 -0.00061303936 0
-0.01520264 0.019457456 -0.00061324984 0
-0.014575362 0.019368241 -0.00061338767 0
-0.022673257 0.019949103 -0.00061068079 0
-0.021967018 0.020071434 -0.0006067995 0
-0.021315495 0.020145981 -0.00053199381 0
-0.02053182 0.020274421 -0.00028476119 0
-0.017504191 0.020168059 -0.00040099025 0
-0.017158747 0.020172946 -0.00054793991 0
-0.016449872 0.020052483 -0.00061302399 0
-0.015578248 0.020061355 -0.00061342353 0
-0.015007777 0.019848745 -0.00061349338 0
-0.014336338 0.020228071 -0.00061387056 0
-0.022747064 0.020788858 -0.00061107753 0
-0.022263119 0.020538114 -0.00061112922 0
-0.021339782 0.020849716 -0.00061161863 0
-0.020770514 0.020722354 -0.00057870708 0
-0.019909203 0.020863548 -0.00056357775 0
-0.019108603 0.020719817 -0.00046957238 0
-0.018484013 0.020866018 -0.00055962754 0
-0.017853187 0.020707104 -0.00059052091 0
-0.017151237 0.020836817 -0.00061314274 0
-0.01633499 0.020940589 -0.00061354693 0
-0.015077652 0.020841235 -0.00061395345 0
-0.014352525 0.020886216 -0.0006039869 0
-0.022591067 0.02162236 -0.0006115525 0
-0.022060566 0.021415722 -0.00061163399 0
-0.02150693 0.021547204 -0.00061186729 0
-0.020564817 0.02158911 -0.00061223004 0
-0.01995055 0.021445598 -0.00061235577 0
-0.019175431 0.021490822 -0.00061266543 0
-0.018670853 0.021459498 -0.00061287219 0
-0.017867075 0.021473616 -0.00061321957 0
-0.017039526 0.02158059 -0.00061358325 0
-0.016124364 0.021619113 -0.00061396882 0
-0.015397657 0.021459576 -0.000614163 0
-0.015162766 0.021509685 -0.00061014807 0
-0.01532956 0.022157207 -0.00059193652 0
-0.020451616 0.014130862 0.00033806171 0
-0.019869961 0.013960487 -6.8230554e-05 0
-0.019227242 0.01391322 3.88138e-05 0
-0.018630739 0.013994684 0.00011561252 0
-0.01808727 0.0141117 0.00024143513 0
-0.021271819 0.0146592 0.00011190027 0
-0.020606197 0.014215579 2.3194589e-05 0
-0.017636573 0.014325071 6.0829334e-05 0
-0.017259171 0.014502508 -6.809365e-05 0
-0.021878807 0.015357981 1.0848045e-05 0
-0.021544252 0.014885882 0.00030385051 0
-0.016832769 0.014917581 0.00025417563 0
-0.016611455 0.015186469 -9.2722476e-06 0
-0.022258218 0.016068971 7.4378215e-05 0
-0.016198976 0.01589556 3.4130178e-05 0
-0.01605895 0.015931791 -0.00024917629 0
-0.022382949 0.016775316 0.00026013423 0
-0.022307962 0.016378123 1.1028722e-05 0
-0.016007423 0.016712356 9.1269612e-05 0
-0.022447672 0.017195549 6.7647547e-05 0
-0.015951701 0.017260721 -2.7909875e-05 0
-0.022489961 0.017869502 -0.00027544471 0
-0.022321843 0.017909408 0.00013498589 0
-0.016103853 0.017927723 4.7838315e-05 0
-0.015961507 0.017760949 -0.00023167301 0
-0.022080177 0.018609984 0.00020188279 0
-0.016365878 0.018655071 -3.5446137e-06 0
-0.021747638 0.019117836 -7.6544471e-05 0
-0.021457497 0.019429956 0.0001809923 0
-0.017157139 0.019605543 4.1265972e-05 0
-0.016734341 0.01930267 -9.4867311e-05 0
-0.021095095 0.019807728 -2.5972724e-05 0
-0.020534655 0.02010363 -6.0874037e-05 0
-0.01998339 0.020246463 3.4291297e-06 0
-0.019103913 0.020345967 7.022731e-05 0
-0.018404195 0.020218078 0.0002267994 0
-0.017738597 0.020028312 4.5476481e-06 0
-0.017386785 0.019748256 -7.9678372e-05 0
-0.01938439 0.020466585 -0.00022645108 0
-0.0185405 0.013828277 0.00076267589 0
-0.021336624 0.014430554 0.0008498216 0
-0.020843614 0.014389057 0.00059883203 0
-0.017711807 0.014274577 0.0007235473 0
-0.021978687 0.01529412 0.00080768391 0
-0.021550583 0.01489581 0.00064245798 0
-0.022240043 0.015867114 0.00077811629 0
-0.016262848 0.015867507 0.00057505164 0
-0.022361245 0.016663047 0.00056592003 0
-0.022514176 0.017171204 0.00082182232 0
-0.022363609 0.017596677 0.00073988736 0
-0.022275103 0.018032895 0.00067547895 0
-0.021989089 0.018820075 0.00072472636 0
-0.021992983 0.01930014 0.00088043883 0
-0.021271152 0.019598747 0.00071906392 0
-0.020632263 0.0201221 0.0007768441 0
-0.019886406 0.020317223 0.00070684403 0
-0.019308018 0.020336436 0.00084964558 0
-0.017018115 0.012572851 -0.0006092228 0
-0.020418592 0.013145068 -0.00060823606 0
-0.019995118 0.013231095 -0.00060845725 0
-0.019005222 0.013091451 -0.00060879206 0
-0.018324492 0.012972761 -0.00060895784 0
-0.017959498 0.012923009 -0.00060905376 0
-0.017159114 0.012885427 -0.00060932338 0
-0.02125236 0.013741707 -0.0005825907 0
-0.020794755 0.013620122 -0.00057071261 0
-0.019897509 0.013620654 -0.00048782723 0
-0.019054722 0.013537248 -0.00049313111 0
-0.018550765 0.013521703 -0.00058016554 0
-0.017710015 0.013862131 -0.00048046093 0
-0.017150017 0.013732852 -0.00060974713 0
-0.019869961 0.013960487 -6.8230554e-05 0
-0.019227242 0.01391322 3.88138e-05 0
-0.018630739 0.013994684 0.00011561252 0
-0.01808727 0.0141117 0.00024143513 0
-0.0185405 0.013828277 0.00076267589 0
-0.020537535 0.012140188 -0.0006077243 0
-0.019928794 0.01233096 -0.00060805352 0
-0.019335777 0.012350753 -0.0006083115 0
-0.018492337 0.012429234 -0.00060863839 0
-0.017828656 0.012345247 -0.00060881535 0
-0.017018115 0.012572851 -0.0006092228 0
-0.020418592 0.013145068 -0.00060823606 0
-0.019995118 0.013231095 -0.00060845725 0
-0.019005222 0.013091451 -0.00060879206 0
-0.018324492 0.012972761 -0.00060895784 0
-0.017959498 0.012923009 -0.00060905376 0
-0.017159114 0.012885427 -0.00060932338 0
-0.02125236 0.013741707 -0.0005825907 0
-0.020794755 0.013620122 -0.00057071261 0
-0.019897509 0.013620654 -0.00048782723 0
-0.019054722 0.013537248 -0.00049313111 0
-0.018550765 0.013521703 -0.00058016554 0
-0.017710015 0.013862131 -0.00048046093 0
-0.017150017 0.013732852 -0.00060974713 0
-0.019869961 0.013960487 -6.8230554e-05 0
-0.019227242 0.01391322 3.88138e-05 0
-0.018630739 0.013994684 0.00011561252 0
-0.01808727 0.0141117 0.00024143513 0
-0.0185405 0.013828277 0.00076267589 0
0.021253493 0.012795786 -0.00047459267 0
0.022113677 0.012686405 -0.0005094423 0
0.022681968 0.012565904 -0.00048418529 0
0.023459431 0.01269776 -0.00050888816 0
0.024120931 0.012672159 -0.00044814032 0
0.02016411 0.013342805 -0.00042713759 0
0.02057598 0.013289476 -0.00053080451 0
0.021313308 0.013259513 -0.00059825927 0
0.022200905 0.013169147 -0.00062411465 0
0.0227434 0.013237968 -0.0006243363 0
0.023571836 0.013252858 -0.00061778771 0
0.024217946 0.013031092 -0.00059849117 0
0.02491124 0.01322018 -0.000505351 0
0.019511484 0.013971507 -0.000412466 0
0.020138754 0.01395765 -0.00059963437 0
0.020818835 0.013974787 -0.00062411372 0
0.021377103 0.013859319 -0.00062418822 0
0.022054559 0.01385131 -0.00062429719 0
0.022779955 0.013818103 -0.00062461151 0
0.023409873 0.013995374 -0.00062499102 0
0.02430298 0.013830366 -0.00062534166 0
0.025088865 0.014030212 -0.00062576123 0
0.025554443 0.013996463 -0.00060425652 0
0.026034649 0.013951814 -0.00043198932 0
0.019330479 0.014272787 -0.00050000241 0
0.020040445 0.014699715 -0.00062407739 0
0.020579267 0.014692216 -0.00062426738 0
0.021326073 0.014656449 -0.00062450208 0
0.02212216 0.014700858 -0.00058020605 0
0.022797415 0.014627321 -0.00056492863 0
0.023516182 0.014558169 -0.00060640322 0
0.024333047 0.014517935 -0.0006256802 0
0.024970856 0.014482294 -0.00062591769 0
0.025724391 0.014404145 -0.00062348414 0
0.026358271 0.014557924 -0.00050136074 0
0.018783838 0.015295137 -0.0005102139 0
0.019262256 0.01532182 -0.00061986689 0
0.020093013 0.015451686 -0.00060279993 0
0.020776538 0.015001959 -0.00062462082 0
0.021492951 0.015156682 -0.00050834473 0
0.022030765 0.015020845 -0.00042465702 0
0.024331488 0.015220265 -0.00052226381 0
0.024833212 0.015264254 -0.00062619103 0
0.025471278 0.015303887 -0.0006262986 0
0.026388364 0.015300885 -0.00061474741 0
0.026730375 0.015116385 -0.00050038937 0
0.018740231 0.015638072 -0.00047943043 0
0.019087318 0.01563772 -0.00041858479 0
0.019739492 0.015633805 -0.00040678168 0
0.020566821 0.015993088 -0.00056142686 0
0.024423286 0.015741009 -0.00038893893 0
0.024716662 0.016145254 -0.00049293181 0
0.02557816 0.016158024 -0.00062659616 0
0.026378734 0.016047023 -0.00062701106 0
0.020783441 0.016528782 -0.00048273662 0
0.02501519 0.016388077 -0.00062646158 0
0.025662879 0.016729183 -0.00062686205 0
0.025954911 0.016457051 -0.00062692259 0
0.020577909 0.017431432 -0.0005323654 0
0.024840832 0.017659837 -0.0005564047 0
0.025754426 0.017397266 -0.00062722526 0
0.026113618 0.01742659 -0.00062745344 0
0.018786941 0.018167553 -0.00055082655 0
0.019308742 0.0181436 -0.00052272342 0
0.020018654 0.018189404 -0.00058483146 0
0.02060522 0.018121947 -0.00059089484 0
0.021250881 0.018163443 -0.00045564771 0
0.024357183 0.018204533 -0.0005036206 0
0.024800468 0.018098142 -0.00059905509 0
0.025652256 0.018128127 -0.00062752562 0
0.026135212 0.018014789 -0.00062775146 0
0.018863594 0.018785276 -0.00040475652 0
0.019231878 0.018842226 -0.00057381531 0
0.019980809 0.018949887 -0.00062613515 0
0.020657746 0.018816693 -0.00062621851 0
0.021331768 0.018659905 -0.00060272962 0
0.022054493 0.018659825 -0.00036864448 0
0.022586359 0.018943835 -0.00051464466 0
0.023419777 0.018715901 -0.00039739022 0
0.024042593 0.018901287 -0.0005930448 0
0.0248133 0.018698782 -0.00062750978 0
0.025653008 0.018821154 -0.00062786648 0
0.026345164 0.018804051 -0.00057999976 0
0.01927406 0.019498602 -0.00038841739 0
0.019967917 0.019620365 -0.00061844056 0
0.020559639 0.019643165 -0.00062648347 0
0.021344723 0.019595023 -0.00062678708 0
0.022081779 0.019412793 -0.00062708184 0
0.022960376 0.019388843 -0.00062746741 0
0.023486229 0.019454004 -0.00062754517 0
0.024317278 0.019488357 -0.00062783901 0
0.024863204 0.019569729 -0.00062795356 0
0.025691949 0.01952628 -0.00061680051 0
0.026125636 0.019620087 -0.000472927 0
0.019766577 0.019943763 -0.00046039419 0
0.02065598 0.020270299 -0.00061855651 0
0.021467572 0.020182449 -0.00062714238 0
0.022025896 0.019990478 -0.00062734354 0
0.022699138 0.020199787 -0.00062774075 0
0.023481471 0.020160973 -0.00062795589 0
0.024344508 0.020213852 -0.00062815379 0
0.024655022 0.020101886 -0.00062136585 0
0.02553037 0.020152194 -0.00047098193 0
0.020807907 0.020767745 -0.00040423032 0
0.021348644 0.020830434 -0.00051062508 0
0.02205505 0.020883534 -0.00057237968 0
0.022825314 0.02080619 -0.00061476091 0
0.023545882 0.020925181 -0.00053730095 0
0.024418492 0.020946475 -0.00043829763 0
0.024790268 0.020638477 -0.0005171299 0
0.026378734 0.016047023 -0.00062701106 0
0.026941214 0.01607151 -0.00052377861 0
0.027030742 0.01686961 -0.00050547672 0
0.027017729 0.017339276 -0.00048033893 0
0.026135212 0.018014789 -0.00062775146 0
0.026798725 0.018123752 -0.00053852284 0
0.026345164 0.018804051 -0.00057999976 0
0.026125636 0.019620087 -0.000472927 0
-0.0079524219 -0.0080232285 -0.00012331828 0
-0.0073503545 -0.0080131367 -0.00020151865 0
-0.0064871409 -0.0078839809 -0.00020352099 0
-0.0059226137 -0.0078366864 -0.00020375522 0
-0.0052906522 -0.00803262 -0.00020389492 0
-0.0044039232 -0.0078078788 -0.0002043359 0
-0.0037731614 -0.0077183526 -0.00020461204 0
-0.0029783132 -0.0078425929 -0.00020480901 0
-0.0079038907 -0.0072402321 -0.00019899523 0
-0.0072736777 -0.0071773045 -0.00020353869 0
-0.0065570553 -0.0074417032 -0.00020370167 0
-0.0058177132 -0.0071657896 -0.0002041012 0
-0.0051096287 -0.0071577132 -0.00020437595 0
-0.0047243102 -0.0070760809 -0.00020455662 0
-0.0035756391 -0.0070203654 -0.00020502042 0
-0.0031328881 -0.0073703546 -0.00020502461 0
-0.0022912067 -0.0072575267 -0.00020539295 0
-0.0015156008 -0.0072191954 -0.00020568725 0
-0.0010004099 -0.0070239212 -0.00020598155 0
-0.00015009247 -0.0072602481 -0.00020615198 0
0.00069671229 -0.0073047057 -0.00020641508 0
0.001297473 -0.0071238205 -0.00020675268 0
0.0017875831 -0.0071930327 -0.00020689983 0
0.0023481916 -0.0070207454 -0.00020721694 0
0.0031649983 -0.0071986578 -0.0002074251 0
0.0040123416 -0.0071699601 -0.00020776736 0
0.0045807427 -0.0072952714 -0.00020791125 0
0.0053429604 -0.0069582034 -0.00020839088 0
0.0060451771 -0.0072046574 -0.00020852545 0
0.0066791293 -0.0072574113 -0.0002087187 0
0.0075024245 -0.0070125256 -0.00020914525 0
-0.0079788603 -0.0063777287 -0.00020353682 0
-0.0072813267 -0.0066883676 -0.0002037026 0
-0.0065303366 -0.0064757764 -0.00020408304 0
-0.0057820445 -0.0065080058 -0.00020434195 0
-0.0051105609 -0.0064771678 -0.00020455802 0
-0.0045220829 -0.0064042509 -0.00020486023 0
-0.0039274278 -0.0065414682 -0.0002049855 0
-0.0029626903 -0.006715158 -0.0002053841 0
-0.0022260428 -0.0064188652 -0.00020565093 0
-0.0016916867 -0.006626986 -0.00020582695 0
-0.00081992865 -0.0063970033 -9.853486e-05 0
-0.00028591353 -0.0064165648 -8.1644394e-05 0
0.00036517615 -0.0063780006 2.1425076e-05 0
0.0010663881 -0.0065247566 -0.00011702068 0
0.0018617043 -0.0064916611 -0.00013461709 0
0.0026485401 -0.0063028391 -0.00016972143 0
0.0031161255 -0.0064454563 -0.00020766258 0
0.0040837009 -0.0064435136 -0.00020802813 0
0.0044949353 -0.0064233486 -0.00020815292 0
0.0056350823 -0.0062740147 -0.00020851521 0
0.0060484484 -0.0064311195 -0.00020867353 0
0.0068623764 -0.0064568557 -0.00020895898 0
0.0074645975 -0.0063986462 -0.00020917319 0
-0.0082738139 -0.0058670547 -0.00020351633 0
-0.0071945544 -0.005723618 -0.00020397035 0
-0.0065887179 -0.005813472 -0.00020418642 0
-0.0058666565 -0.0057085548 -0.00020449003 0
-0.0052724746 -0.0058615133 -0.00020470424 0
-0.004535961 -0.0057188123 -0.00020501763 0
-0.0036963692 -0.0056973267 -0.00020536268 0
-0.0029328635 -0.0057987776 -0.0001759734 0
-0.0024151006 -0.0056525487 4.014466e-05 0
-0.0017123083 -0.0058980323 7.764902e-05 0
0.0033286244 -0.0056216121 7.9313293e-05 0
0.0038445902 -0.0057567265 -0.00019876985 0
0.0045840056 -0.0057382379 -0.00020854222 0
0.0054167579 -0.0057148505 -0.00020880252 0
0.0062178904 -0.0057519097 -0.00020899158 0
0.0069447574 -0.0056788456 -0.00020924676 0
0.0076952502 -0.005757628 -0.00020945957 0
-0.0079052364 -0.0050242972 -0.00020409934 0
-0.0073476695 -0.0049093366 -0.00020438619 0
-0.0066289641 -0.0051577967 -0.00020445511 0
-0.0055822846 -0.0050524659 -0.00020492775 0
-0.005106221 -0.0051207058 -0.00020506093 0
-0.0044721272 -0.0049259961 -0.00020542741 0
-0.0038570834 -0.0050560869 -0.00020557363 0
-0.0031711771 -0.0051714536 4.6401285e-05 0
0.0047358824 -0.0050729234 -0.00012567639 0
0.005143709 -0.0051151253 -0.0002089059 0
0.0060932189 -0.0051831491 -0.00020924117 0
0.0068870098 -0.0049914494 -0.000209691 0
0.0073295082 -0.0049866121 -0.00020986656 0
-0.0081040673 -0.004283106 -0.00020462554 0
-0.0071944259 -0.0042350441 -0.00020499295 0
-0.0066286307 -0.004316831 -0.00020512985 0
-0.0056912573 -0.0045947228 -0.00020523043 0
-0.0050965818 -0.0043722708 -0.00020562112 0
-0.0044060061 -0.0043210816 -5.174987e-05 0
0.0052334797 -0.0042507555 2.6313588e-05 0
0.0060032802 -0.0043698531 -0.00020903675 0
0.0068552196 -0.0042654015 -0.0002100179 0
0.0073657422 -0.0043224525 -0.00021019112 0
-0.0087079825 -0.0035795365 -0.00020477315 0
-0.0079394076 -0.0037759971 -0.00020490866 0
-0.0073258281 -0.0036335699 -0.00020517642 0
-0.0064733196 -0.0038305204 -0.00020542415 0
-0.0059570116 -0.0036778152 -0.00020565838 0
-0.0051143523 -0.0037735105 -0.00018867338 0
0.0059839324 -0.0035339594 -6.3501298e-05 0
0.0065041035 -0.0037271902 -0.00021017203 0
0.0073874928 -0.0036387593 -0.00021056505 0
-0.0087659433 -0.0029613134 -0.00020511076 0
-0.0079430081 -0.0029592346 -0.00020536408 0
-0.0075986562 -0.0030997992 -0.00020537619 0
-0.0065884604 -0.0030144304 -0.00020574406 0
-0.0059407488 -0.0029939245 -0.00020595454 0
-0.0051713604 -0.0029922407 2.6590191e-05 0
0.0062850262 -0.0028907005 -9.9813566e-05 0
0.0064610192 -0.0032124706 -0.00021028519 0
0.0073425868 -0.0029526018 -0.00021068798 0
-0.0086556515 -0.0023001917 -0.00020534033 0
-0.0081234509 -0.0024091359 -0.00020554708 0
-0.0073448019 -0.002353942 -0.00020585814 0
-0.0067643318 -0.0025050137 -0.00020602066 0
-0.0059478683 -0.0021807048 -0.00020262646 0
0.0067116106 -0.0023559257 -0.00011296663 0
0.0072370735 -0.0021381676 -0.00021095807 0
0.0067432313 -0.0017431956 -3.9393082e-05 0
-0.00024367619 -0.012006998 0.00011345465 0
0.00053233397 -0.011991387 0.00010216329 0
0.0026990126 -0.011837421 0.00011291634 0
-0.0030114886 -0.01148461 0.00010265596 0
-0.0023332054 -0.01131464 -0.00010950584 0
-0.0016041351 -0.011181826 -0.00017767493 0
-0.0009522356 -0.011489877 -0.00014389679 0
-0.00024125975 -0.011330374 -0.00018808478 0
0.00063165033 -0.011284346 -0.00018986361 0
0.0018016682 -0.011414636 -0.00016727764 0
0.0025245126 -0.011435349 -0.00012593437 0
0.0032383455 -0.011368742 -8.9623965e-05 0
0.0040136348 -0.011389768 4.6073459e-05 0
0.004833593 -0.011225659 0.00015402399 0
-0.0044960696 -0.010724083 -3.9658509e-05 0
-0.0038368835 -0.010645228 -0.00015841797 0
-0.0031835407 -0.010529194 -0.00019798195 0
-0.0024001473 -0.01059331 -0.00020361505 0
-0.001500614 -0.010542123 -0.00020406302 0
-0.0010315988 -0.010650888 -0.00020407652 0
-4.4375018e-05 -0.010602059 -0.00020429026 0
0.0004338194 -0.010608096 -0.00020440295 0
0.0010860442 -0.010580594 -0.00020462135 0
0.0016798845 -0.010561911 -0.00020486861 0
0.0026238996 -0.010746174 -0.00020520482 0
0.003114406 -0.010791432 -0.00020539807 0
0.0038642969 -0.010638252 -0.00020102318 0
0.00468635 -0.010566927 -0.00018222723 0
0.0054029734 -0.010657167 -0.00010248739 0
0.005964037 -0.0106437 7.7751465e-05 0
-0.005095969 -0.010157645 -0.00015256926 0
-0.0044166218 -0.0099610705 -0.00018815789 0
-0.0035918846 -0.010068556 -0.00020331331 0
-0.0032630495 -0.010061176 -0.00020345068 0
-0.002248253 -0.0100211 -0.00020392286 0
-0.0016663037 -0.0099257883 -0.00020426791 0
-0.00068841357 -0.010040777 -0.000204504 0
-0.00018193654 -0.010136018 -0.00020453194 0
0.0003631828 -0.010028113 -0.00020472798 0
0.0012803001 -0.0099317301 -0.00020508002 0
0.0020410779 -0.0099552684 -0.00020535849 0
0.0026672236 -0.0099104736 -0.00020562531 0
0.0032643697 -0.009943746 -0.00020583905 0
0.0039810208 -0.010068171 -0.00020611519 0
0.0048820018 -0.0099276789 -0.00020654406 0
0.0055829058 -0.010034636 -0.00020359131 0
0.0061731874 -0.010007771 -0.00017214101 0
0.0066372608 -0.010119066 -5.1944517e-05 0
-0.0050906041 -0.0092527829 -0.00020318618 0
-0.0045213727 -0.0092633329 -0.00020338828 0
-0.0035769802 -0.0090765283 -0.00020384835 0
-0.003174738 -0.0094553046 -0.00020379806 0
-0.0023417408 -0.0091592874 -0.000204287 0
-0.0017232236 -0.0093779303 -0.00020446442 0
-0.0011593734 -0.009119587 -0.00020485604 0
-0.00011092186 -0.0093428604 -0.00020502415 0
0.00057468039 -0.0093006026 -0.00020520948 0
0.0013361364 -0.0089840554 -0.0002056635 0
0.001905456 -0.0093558114 -0.00020566164 0
0.002658661 -0.009304367 -0.00020598155 0
0.0031752212 -0.0091189984 -0.00020628981 0
0.003790606 -0.0092127342 -0.00020647002 0
0.004661391 -0.0090981107 -0.00020687608 0
0.0053423312 -0.0092171207 -0.00020709401 0
0.0060890485 -0.0093106814 -0.00020735059 0
0.0067308061 -0.0093356948 -0.00020154379 0
0.0074082506 -0.0092392769 -0.00014996156 0
0.0082101915 -0.0091752671 6.0118735e-05 0
-0.0052717677 -0.0085852221 -0.00020357175 0
-0.0045990967 -0.0084648337 -0.00020386884 0
-0.0037512432 -0.0086762216 -0.0002040118 0
-0.0030476931 -0.008535618 -0.0002043494 0
-0.0022985754 -0.00861088 -0.00020459108 0
-0.0016992721 -0.0085767452 -0.00020485045 0
-0.00099148997 -0.0087825079 -0.00020507863 0
-0.00013846968 -0.0085860379 -0.00020548142 0
0.00041100776 -0.0084885359 -0.0002056486 0
0.0012725925 -0.0086603947 -0.0002058316 0
0.0020060802 -0.0085093416 -0.00020620273 0
0.0024741313 -0.0085631814 -0.00020634988 0
0.0035510859 -0.0083522089 -0.00020688865 0
0.0041112797 -0.0085142069 -0.00020700786 0
0.0046102456 -0.008543143 -0.00020718249 0
0.0055297837 -0.0084759854 -0.00020757504 0
0.0060207644 -0.0086721592 -0.00020765467 0
0.0066744299 -0.0085441079 -0.0002079918 0
0.0075875819 -0.0084235631 -0.00020844396 0
0.0081354305 -0.0085741412 -0.00016833656 0
0.008808325 -0.0086425412 0.00010216422 0
-0.0052906522 -0.00803262 -0.00020389492 0
-0.0044039232 -0.0078078788 -0.0002043359 0
-0.0037731614 -0.0077183526 -0.00020461204 0
-0.0029783132 -0.0078425929 -0.00020480901 0
-0.0016875193 -0.0079402849 -0.00020519039 0
-0.00084921176 -0.0079576802 -0.00020551216 0
-0.00024109619 -0.0078317411 -0.00020584837 0
0.00050841755 -0.0078365207 -0.00020606164 0
0.0010194101 -0.0078387428 -0.00020622183 0
0.0016426627 -0.0079515036 -0.00020639412 0
0.002488072 -0.0080151092 -0.00020668097 0
0.0031906613 -0.0078941975 -0.0002070223 0
0.0040482362 -0.0080015585 -0.00020728773 0
0.004638962 -0.0078294296 -0.00020761695 0
0.0055038966 -0.0078001469 -0.00020796619 0
0.0057768812 -0.0077214558 -0.00020811753 0
0.0066972785 -0.0078300182 -0.00020840624 0
0.0073338603 -0.007695416 -0.00020872988 0
0.0081532234 -0.0078679863 -0.00020895246 0
0.0090071829 -0.0078745037 -0.00014381576 0
-0.0051096287 -0.0071577132 -0.00020437595 0
-0.0047243102 -0.0070760809 -0.00020455662 0
-0.0035756391 -0.0070203654 -0.00020502042 0
-0.0031328881 -0.0073703546 -0.00020502461 0
-0.0022912067 -0.0072575267 -0.00020539295 0
-0.0015156008 -0.0072191954 -0.00020568725 0
-0.0010004099 -0.0070239212 -0.00020598155 0
-0.00015009247 -0.0072602481 -0.00020615198 0
0.00069671229 -0.0073047057 -0.00020641508 0
0.001297473 -0.0071238205 -0.00020675268 0
0.0017875831 -0.0071930327 -0.00020689983 0
0.0023481916 -0.0070207454 -0.00020721694 0
0.0031649983 -0.0071986578 -0.0002074251 0
0.0040123416 -0.0071699601 -0.00020776736 0
0.0045807427 -0.0072952714 -0.00020791125 0
0.0053429604 -0.0069582034 -0.00020839088 0
0.0060451771 -0.0072046574 -0.00020852545 0
0.0066791293 -0.0072574113 -0.0002087187 0
0.0075024245 -0.0070125256 -0.00020914525 0
0.0083155632 -0.0073660128 -0.00020930264 0
0.0089703603 -0.0070595052 -0.00020520017 0
0.009587558 -0.0072813742 -0.00012873299 0
0.010085001 -0.0071541239 5.4963864e-05 0
-0.0051105609 -0.0064771678 -0.00020455802 0
-0.0045220829 -0.0064042509 -0.00020486023 0
-0.0039274278 -0.0065414682 -0.0002049855 0
-0.0029626903 -0.006715158 -0.0002053841 0
-0.0022260428 -0.0064188652 -0.00020565093 0
-0.0016916867 -0.006626986 -0.00020582695 0
-0.00081992865 -0.0063970033 -9.853486e-05 0
-0.00028591353 -0.0064165648 -8.1644394e-05 0
0.00036517615 -0.0063780006 2.1425076e-05 0
0.0010663881 -0.0065247566 -0.00011702068 0
0.0018617043 -0.0064916611 -0.00013461709 0
0.0026485401 -0.0063028391 -0.00016972143 0
0.0031161255 -0.0064454563 -0.00020766258 0
0.0040837009 -0.0064435136 -0.00020802813 0
0.0044949353 -0.0064233486 -0.00020815292 0
0.0056350823 -0.0062740147 -0.00020851521 0
0.0060484484 -0.0064311195 -0.00020867353 0
0.0068623764 -0.0064568557 -0.00020895898 0
0.0074645975 -0.0063986462 -0.00020917319 0
0.0080577703 -0.006459767 -0.00020935526 0
0.0089267381 -0.0064628907 -0.00020964956 0
0.0094891721 -0.0063168537 -0.00020983443 0
0.010167263 -0.0065016076 -9.4644725e-05 0
-0.0052724746 -0.0058615133 -0.00020470424 0
-0.004535961 -0.0057188123 -0.00020501763 0
-0.0036963692 -0.0056973267 -0.00020536268 0
-0.0029328635 -0.0057987776 -0.0001759734 0
-0.0024151006 -0.0056525487 4.014466e-05 0
-0.0017123083 -0.0058980323 7.764902e-05 0
0.0033286244 -0.0056216121 7.9313293e-05 0
0.0038445902 -0.0057567265 -0.00019876985 0
0.0045840056 -0.0057382379 -0.00020854222 0
0.0054167579 -0.0057148505 -0.00020880252 0
0.0062178904 -0.0057519097 -0.00020899158 0
0.0069447574 -0.0056788456 -0.00020924676 0
0.0076952502 -0.005757628 -0.00020945957 0
0.0083117941 -0.005661929 -0.00020976458 0
0.0088953646 -0.0055079795 -0.00021013292 0
0.0095511498 -0.0058017466 -0.00021015108 0
0.010289065 -0.0058781691 -0.00017895875 0
-0.0055822846 -0.0050524659 -0.00020492775 0
-0.005106221 -0.0051207058 -0.00020506093 0
-0.0044721272 -0.0049259961 -0.00020542741 0
-0.0038570834 -0.0050560869 -0.00020557363 0
-0.0031711771 -0.0051714536 4.6401285e-05 0
0.0047358824 -0.0050729234 -0.00012567639 0
0.005143709 -0.0051151253 -0.0002089059 0
0.0060932189 -0.0051831491 -0.00020924117 0
0.0068870098 -0.0049914494 -0.000209691 0
0.0073295082 -0.0049866121 -0.00020986656 0
0.0080519551 -0.0049725976 -0.00021019718 0
0.0086378902 -0.0050410423 -0.0002104044 0
0.0095458478 -0.0049447175 -0.00021082768 0
0.010267308 -0.0051663388 -0.00021097623 0
-0.0056912573 -0.0045947228 -0.00020523043 0
-0.0050965818 -0.0043722708 -0.00020562112 0
-0.0044060061 -0.0043210816 -5.174987e-05 0
0.0052334797 -0.0042507555 2.6313588e-05 0
0.0060032802 -0.0043698531 -0.00020903675 0
0.0068552196 -0.0042654015 -0.0002100179 0
0.0073657422 -0.0043224525 -0.00021019112 0
0.008211975 -0.0044777188 -0.00021046773 0
0.008927769 -0.0043937359 -0.00021079415 0
0.0094817588 -0.004361907 -0.00021103397 0
0.010145368 -0.004312098 -0.00021132734 0
0.0059839324 -0.0035339594 -6.3501298e-05 0
0.0065041035 -0.0037271902 -0.00021017203 0
0.0073874928 -0.0036387593 -0.00021056505 0
0.0081493687 -0.0037028734 -0.00021080719 0
0.008752211 -0.0037420392 -0.00021102699 0
0.0094101559 -0.0036705136 -0.00021131011 0
0.0064610192 -0.0032124706 -0.00021028519 0
0.0073425868 -0.0029526018 -0.00021068798 0
0.0080878539 -0.0030447636 -0.00021098601 0
0.008897637 -0.0030709766 -0.00021129847 0
0.0095350882 -0.0026771538 -0.00021164026 0
0.010236089 -0.0028808881 -0.00021186937 0
0.0046102456 -0.008543143 -0.00020718249 0
0.0055297837 -0.0084759854 -0.00020757504 0
0.004638962 -0.0078294296 -0.00020761695 0
0.0055038966 -0.0078001469 -0.00020796619 0
0.0057768812 -0.0077214558 -0.00020811753 0
0.0066972785 -0.0078300182 -0.00020840624 0
0.0073338603 -0.007695416 -0.00020872988 0
0.0081532234 -0.0078679863 -0.00020895246 0
0.0090071829 -0.0078745037 -0.00014381576 0
0.0040123416 -0.0071699601 -0.00020776736 0
0.0045807427 -0.0072952714 -0.00020791125 0
0.0053429604 -0.0069582034 -0.00020839088 0
0.0060451771 -0.0072046574 -0.00020852545 0
0.0066791293 -0.0072574113 -0.0002087187 0
0.0075024245 -0.0070125256 -0.00020914525 0
0.0083155632 -0.0073660128 -0.00020930264 0
0.0089703603 -0.0070595052 -0.00020520017 0
0.009587558 -0.0072813742 -0.00012873299 0
0.010085001 -0.0071541239 5.4963864e-05 0
0.0040837009 -0.0064435136 -0.00020802813 0
0.0044949353 -0.0064233486 -0.00020815292 0
0.0056350823 -0.0062740147 -0.00020851521 0
0.0060484484 -0.0064311195 -0.00020867353 0
0.0068623764 -0.0064568557 -0.00020895898 0
0.0074645975 -0.0063986462 -0.00020917319 0
0.0080577703 -0.006459767 -0.00020935526 0
0.0089267381 -0.0064628907 -0.00020964956 0
0.0094891721 -0.0063168537 -0.00020983443 0
0.010167263 -0.0065016076 -9.4644725e-05 0
0.0045840056 -0.0057382379 -0.00020854222 0
0.0054167579 -0.0057148505 -0.00020880252 0
0.0062178904 -0.0057519097 -0.00020899158 0
0.0069447574 -0.0056788456 -0.00020924676 0
0.0076952502 -0.005757628 -0.00020945957 0
0.0083117941 -0.005661929 -0.00020976458 0
0.0088953646 -0.0055079795 -0.00021013292 0
0.0095511498 -0.0058017466 -0.00021015108 0
0.010289065 -0.0058781691 -0.00017895875 0
0.010911296 -0.005681498 -1.0854565e-05 0
0.0047358824 -0.0050729234 -0.00012567639 0
0.005143709 -0.0051151253 -0.0002089059 0
0.0060932189 -0.0051831491 -0.00020924117 0
0.0068870098 -0.0049914494 -0.000209691 0
0.0073295082 -0.0049866121 -0.00020986656 0
0.0080519551 -0.0049725976 -0.00021019718 0
0.0086378902 -0.0050410423 -0.0002104044 0
0.0095458478 -0.0049447175 -0.00021082768 0
0.010267308 -0.0051663388 -0.00021097623 0
0.011004038 -0.0050539598 -0.0001322059 0
0.011400973 -0.0051113088 0.00012158789 0
0.0052334797 -0.0042507555 2.6313588e-05 0
0.0060032802 -0.0043698531 -0.00020903675 0
0.0068552196 -0.0042654015 -0.0002100179 0
0.0073657422 -0.0043224525 -0.00021019112 0
0.008211975 -0.0044777188 -0.00021046773 0
0.008927769 -0.0043937359 -0.00021079415 0
0.0094817588 -0.004361907 -0.00021103397 0
0.010145368 -0.004312098 -0.00021132734 0
0.010754084 -0.0043638274 -0.00019806391 0
0.011604498 -0.0044417679 6.7900866e-05 0
0.0059839324 -0.0035339594 -6.3501298e-05 0
0.0065041035 -0.0037271902 -0.00021017203 0
0.0073874928 -0.0036387593 -0.00021056505 0
0.0081493687 -0.0037028734 -0.00021080719 0
0.008752211 -0.0037420392 -0.00021102699 0
0.0094101559 -0.0036705136 -0.00021131011 0
0.010370917 -0.0036509167 -0.00021167193 0
0.010882691 -0.0036887378 -0.00021186471 0
0.011680358 -0.0037113689 -6.9793314e-05 0
0.0062850262 -0.0028907005 -9.9813566e-05 0
0.0064610192 -0.0032124706 -0.00021028519 0
0.0073425868 -0.0029526018 -0.00021068798 0
0.0080878539 -0.0030447636 -0.00021098601 0
0.008897637 -0.0030709766 -0.00021129847 0
0.0095350882 -0.0026771538 -0.00021164026 0
0.010236089 -0.0028808881 -0.00021186937 0
0.010963126 -0.0029085036 -0.00021214364 0
0.011588923 -0.0030099917 -0.00016324595 0
0.0067116106 -0.0023559257 -0.00011296663 0
0.0072370735 -0.0021381676 -0.00021095807 0
0.007864601 -0.0023164451 -0.00021112058 0
0.0089019965 -0.0021967385 -0.00021158345 0
0.009648772 -0.0022257976 -0.00021185959 0
0.01028785 -0.0023527276 -0.0002120533 0
0.010891482 -0.0021790843 -0.00021236716 0
0.011650793 -0.0022782888 -0.00018655322 0
0.012291281 -0.0021941438 0.00011262298 0
0.0067432313 -0.0017431956 -3.9393082e-05 0
0.0074079204 -0.0015020538 -0.00021132641 0
0.0082191033 -0.0016821548 -0.00021154992 0
0.0088453284 -0.0015514269 -0.000211854 0
0.0093560191 -0.0018165149 -0.00021193177 0
0.01025333 -0.0014916863 -0.00021242769 0
0.010779415 -0.0014290195 -0.00021265959 0
0.011738827 -0.0016688388 -0.00019879127 0
0.012369154 -0.0016466323 0.00010883622 0
0.0068352427 -0.0008918643 -2.1247193e-05 0
0.0074205771 -0.00093108974 -0.00021161512 0
0.0082240272 -0.00070552155 -0.00021207146 0
0.0086574703 -0.00089333393 -0.00021211663 0
0.0092911264 -0.00085373037 -0.00021238811 0
0.010393525 -0.0011689011 -0.00021263072 0
0.010915594 -0.00069835037 -0.00021312619 0
0.0115251 -0.00090077519 -0.00021323375 0
0.012460248 -0.00080318004 8.7813474e-05 0
0.0075059668 -0.00022288784 -0.00021202071 0
0.0081967311 -3.8381666e-05 -0.00021240674 0
0.0086966874 -0.00022189692 -0.00021252874 0
0.0096180355 -0.00030066632 -0.00021288497 0
0.010213824 -2.3039058e-05 -0.00021327753 0
0.011069106 -9.9793077e-05 -0.0002135965 0
0.011730296 -0.00020914711 -0.00020933338 0
0.012257326 -0.00012968108 -3.0072406e-05 0
0.0073331692 0.00051964074 -0.00021238951 0
0.0080618784 0.00038042665 -0.0002125795 0
0.0088418135 0.00057103299 -0.00021303492 0
0.0095994184 0.00037142076 -0.00021322491 0
0.010064272 0.00061252527 -0.00021357415 0
0.010929699 0.00066191144 -0.00021397043 0
0.011515556 0.00066648796 -0.00021422049 0
0.012323575 0.00065764971 -2.9373914e-06 0
0.0067465757 0.0012123846 1.2990087e-05 0
0.0073124431 0.0012661703 -0.0002129334 0
0.0079694455 0.0012804624 -0.00021320069 0
0.0087566134 0.0012671668 -0.00021349452 0
0.0095105255 0.0013130661 -0.00021382514 0
0.009983832 0.00093249977 -0.00021374458 0
0.011001228 0.001324771 -0.00021442585 0
0.011676381 0.0011587664 -0.00020268559 0
0.012442657 0.0012083575 0.00012067799 0
0.0065795672 0.0020231176 -2.6275404e-05 0
0.0075825076 0.0020730291 -0.00021357695 0
0.0080834338 0.0018523056 -0.00021363329 0
0.0089896629 0.0018125037 -0.0002139681 0
0.0095059033 0.001905174 -0.00021421118 0
0.010359222 0.0019687051 -0.00021457998 0
0.010886411 0.0022250554 -0.00021489896 0
0.011637695 0.0020676414 -0.00020123227 0
0.012279063 0.0019538719 2.5564805e-05 0
0.0067605865 0.002744074 -0.00020035962 0
0.0075715017 0.0026323637 -0.00021386705 0
0.0081339255 0.0026988955 -0.00021410547 0
0.0088263489 0.0027107261 -0.00021436252 0
0.0095620779 0.0025321413 -0.00021454785 0
0.010319461 0.0026480686 -0.00021488499 0
0.010964742 0.0027706008 -0.00021517789 0
0.011698815 0.0027044788 -0.00016091578 0
0.012221408 0.0026760204 0.00010430161 0
0.0059813266 0.0032720026 1.7037615e-05 0
0.0067790421 0.0034989472 -0.00021391409 0
0.0072407853 0.0032601934 -0.000214017 0
0.0078554777 0.0034275139 -0.00021427404 0
0.0089212945 0.0032215277 -0.00021461677 0
0.0094568525 0.0034971675 -0.00021484774 0
0.010330406 0.0032474296 -0.00021511689 0
0.010993467 0.0034715245 -0.00021538371 0
0.011618597 0.0034729727 -0.00011078082 0
0.0055476087 0.0041187108 -0.00013564248 0
0.0061451979 0.0041633211 -0.00021388801 0
0.006661946 0.0043001967 -0.00021411059 0
0.0074684341 0.0039555775 -0.00021425076 0
0.0083853919 0.0042249793 -0.00021462748 0
0.0086811371 0.0040229522 -0.00021466753 0
0.0094007971 0.0040523103 -0.00021492038 0
0.010316015 0.0040972987 -0.00021524401 0
0.010982803 0.0039945152 -0.00020470563 0
0.011652555 0.0040502204 -4.5914203e-07 0
0.0052587842 0.0047798846 -0.00021316437 0
0.0061854511 0.0047979979 -0.00021427264 0
0.0066993083 0.0047916435 -0.00021443609 0
0.0072857663 0.0048467508 -0.00021466753 0
0.007993103 0.0049587507 -0.00021497812 0
0.0089195147 0.0048417058 -0.00021520071 0
0.0094624041 0.00476739 -0.0002153255 0
0.010323415 0.0048643686 -0.00021567661 0
0.011070014 0.004622709 -0.00017415639 0
0.0039993599 0.0053812796 -4.0913001e-05 0
0.0046969736 0.0052800234 -0.00021370128 0
0.0052480674 0.0054713162 -0.00021397555 0
0.0060596089 0.0053876247 -0.00021430105 0
0.0066520362 0.0053665536 -0.00021456508 0
0.0075692488 0.00567671 -0.00021504145 0
0.0079680327 0.0053659631 -0.00021512806 0
0.008690835 0.0054585012 -0.00021550432 0
0.0096175866 0.0054733027 -0.00021583633 0
0.010224405 0.0054939454 -0.00021220418 0
0.010884136 0.0054869102 -9.6687116e-05 0
0.0031441972 0.0061510317 -0.00016110297 0
0.0040352484 0.0061511844 -0.0002138163 0
0.0045088376 0.0060975309 -0.00021396717 0
0.0053547672 0.0062057478 -0.00021439278 0
0.0060454342 0.0060967691 -0.00021464331 0
0.0073361993 0.0062805563 -0.00021518953 0
0.0083704246 0.0061624302 -0.00021555787 0
0.0088884262 0.0059739714 -0.0002157134 0
0.0092317816 0.0060124192 -0.00021585217 0
0.010235763 0.0062299194 -0.00014730264 0
0.003192299 0.0068922155 -0.0002137674 0
0.0038905041 0.0067850966 -0.00021404913 0
0.0047244416 0.0067276787 -0.00021430757 0
0.0054816967 0.0069156354 -0.00021468941 0
0.0062003545 0.0067167506 -0.00021489384 0
0.0067769103 0.006797215 -0.00021511316 0
0.0075153448 0.0069029247 -0.00021544192 0
0.0081156725 0.0067560114 -0.0002156035 0
0.0087612942 0.0067678681 -0.00021586986 0
0.0095652407 0.0068761976 -0.00019676937 0
0.010309772 0.0069492366 0.00011331216 0
0.0035516797 0.0075027822 -0.00021420792 0
0.0037754267 0.0074715596 -0.00021427777 0
0.0043644453 0.0075854929 -0.00021455111 0
0.0050691362 0.0075816652 -0.00021480862 0
0.0059900284 0.007617211 -0.00021516765 0
0.0068185679 0.0074618189 -0.00021540187 0
0.0073235533 0.0075585293 -0.00021563889 0
0.0081738681 0.0075662397 -0.00021596113 0
0.0086863833 0.0075080618 -0.00020983629 0
0.0096371341 0.0076846099 2.3392029e-05 0
0.0039265514 0.0081310133 -0.00021471735 0
0.0046092593 0.0082165729 -0.00021500466 0
0.0060430611 0.0082848435 -0.00021554902 0
0.0067318147 0.0083302772 -0.00021581771 0
0.0073770094 0.0083837491 -0.00021607941 0
0.0080488082 0.0082929051 -0.00021373481 0
0.0088758655 0.0082735904 -8.711312e-05 0
0.0065795672 0.0020231176 -2.6275404e-05 0
0.0075825076 0.0020730291 -0.00021357695 0
0.0080834338 0.0018523056 -0.00021363329 0
0.0067605865 0.002744074 -0.00020035962 0
0.0075715017 0.0026323637 -0.00021386705 0
0.0081339255 0.0026988955 -0.00021410547 0
0.0059813266 0.0032720026 1.7037615e-05 0
0.0067790421 0.0034989472 -0.00021391409 0
0.0072407853 0.0032601934 -0.000214017 0
0.0078554777 0.0034275139 -0.00021427404 0
0.0055476087 0.0041187108 -0.00013564248 0
0.0061451979 0.0041633211 -0.00021388801 0
0.006661946 0.0043001967 -0.00021411059 0
0.0074684341 0.0039555775 -0.00021425076 0
0.0052587842 0.0047798846 -0.00021316437 0
0.0061854511 0.0047979979 -0.00021427264 0
0.0066993083 0.0047916435 -0.00021443609 0
0.0072857663 0.0048467508 -0.00021466753 0
0.0039993599 0.0053812796 -4.0913001e-05 0
0.0046969736 0.0052800234 -0.00021370128 0
0.0052480674 0.0054713162 -0.00021397555 0
0.0060596089 0.0053876247 -0.00021430105 0
0.0066520362 0.0053665536 -0.00021456508 0
0.0075692488 0.00567671 -0.00021504145 0
0.0025170378 0.0061441157 -4.3848529e-05 0
0.0031441972 0.0061510317 -0.00016110297 0
0.0040352484 0.0061511844 -0.0002138163 0
0.0045088376 0.0060975309 -0.00021396717 0
0.0053547672 0.0062057478 -0.00021439278 0
0.0060454342 0.0060967691 -0.00021464331 0
0.0073361993 0.0062805563 -0.00021518953 0
-0.00025937258 0.006719349 -0.00021239417 0
0.00099299964 0.0067098001 -0.00020736037 0
0.0025567843 0.0065864436 -0.00021357508 0
0.003192299 0.0068922155 -0.0002137674 0
0.0038905041 0.0067850966 -0.00021404913 0
0.0047244416 0.0067276787 -0.00021430757 0
0.0054816967 0.0069156354 -0.00021468941 0
0.0062003545 0.0067167506 -0.00021489384 0
0.0067769103 0.006797215 -0.00021511316 0
