# .PCD v0.7 - Point Cloud Data file format
VERSION 0.7
FIELDS x y z
SIZE 4 4 4
TYPE F F F
COUNT 1 1 1
WIDTH 1183
HEIGHT 1
VIEWPOINT 0 0 0 1 0 0 0
POINTS 1183
DATA ascii
0.0048737759 0.040073261 -0.00023113098
0.0058694053 0.040068429 -0.00023141876
0.0062292386 0.040059518 -0.00023152912
0.0069950656 0.040163923 -0.0002318467
0.007680072 0.040336363 -0.00022635143
0.0084680272 0.040306326 -0.00013752747
-0.011304827 0.039936554 -0.00016816519
-0.010372958 0.039715551 -0.00022569345
-0.0097550936 0.040048964 -0.00022611301
-0.0093544312 0.039992224 -0.00022621825
-0.0082215928 0.039940674 -0.00022657588
-0.0075139049 0.040014084 -0.00022684457
-0.0069449348 0.04003359 -0.00022705458
-0.0063064313 0.040178634 -0.00022736937
-0.0057871481 0.040173709 -0.00022753328
-0.0047088368 0.040009964 -0.00022777403
-0.0041361395 0.04026502 -0.00020299759
-0.0035134442 0.040300533 -0.00016495492
-0.0028025398 0.0404534 -0.00019595213
-0.0020371149 0.040437974 -8.9815818e-05
-0.00067986979 0.040407564 -7.729046e-05
-3.4586992e-06 0.040455714 -0.00016181637
0.00075529632 0.040549856 -0.00023005204
0.0012823974 0.040483478 -0.0002302411
0.0022299876 0.040667538 -0.00023062341
0.0026300068 0.040667892 -0.00023075705
0.0036496762 0.040779348 -0.0002311673
0.0040130056 0.040817048 -0.00023133773
0.0048093088 0.04085806 -0.00023163948
0.005775569 0.041033473 -0.00023207767
0.0063333772 0.040809691 -0.00023209397
0.0069630723 0.040945347 -0.00023238314
0.0077208802 0.041026939 -0.00020565046
-0.010656605 0.040587742 -0.00020963792
-0.0098418165 0.040697344 -0.00022651115
-0.0092451107 0.040606808 -0.00022665504
-0.008497227 0.040923618 -0.00022709696
-0.0077772224 0.040690023 -0.00022720266
-0.0069240043 0.040850773 -0.00022758171
-0.0062494073 0.040822402 -0.00022779498
-0.0057030534 0.040932547 -0.00022803666
-0.0050087753 0.040804576 -0.00022820057
-0.0043568425 0.040903155 -0.00022846973
-0.0036029704 0.041159213 -0.00022884272
-0.0029460127 0.040934745 -0.00022894936
-0.0023241113 0.041014597 -0.00022921944
-0.0013866833 0.041143391 -0.0002296106
-0.0005427202 0.041355018 -0.00023002271
-0.00010465877 0.041118674 -0.00023002736
0.00071614096 0.041068539 -0.0002302886
0.001196628 0.041117553 -0.00023048138
0.0021216653 0.041282363 -0.0002308921
0.0029450918 0.04137031 -0.00023122551
0.0035924367 0.041425649 -0.00023148116
0.0041736984 0.04161356 -0.00023178058
0.0048640845 0.041490145 -0.00023196219
0.0053928634 0.041343551 -0.00023207627
0.0060651973 0.041527927 -0.00023240596
0.0069581172 0.041613784 -0.0002179076
0.0074803974 0.041745838 -0.00011784304
-0.0097302394 0.041393213 -0.00022510719
-0.00926458 0.041267652 -0.00022702711
-0.0086445324 0.041377183 -0.00022729486
-0.0077631762 0.041567285 -0.00022768881
-0.0069513069 0.041409247 -0.00022787554
-0.00636019 0.041423317 -0.0002280795
-0.0057881568 0.041426215 -0.00022826996
-0.0048525068 0.041685089 -0.00022869557
-0.0042461855 0.04167131 -0.00022887159
-0.0035105329 0.04162829 -0.00022908766
-0.0029039865 0.041774292 -0.00022945134
-0.0020387303 0.041789841 -0.00022970233
-0.0013179805 0.041906215 -0.00022999709
-0.00077866937 0.041967668 -0.00023026345
-8.9409295e-06 0.042023841 -0.00023059919
0.00077389018 0.04212961 -0.00023090933
0.0012942196 0.042103339 -0.00023105741
0.0020768107 0.0420136 -0.0002312609
0.0026404806 0.042145129 -0.00023152353
0.0033466294 0.042076565 -0.0002317261
0.0041465284 0.042377442 -0.00023216056
0.004791013 0.042169124 -0.0002322793
0.0054610167 0.042234607 -0.00023254892
0.0062167123 0.042327601 -0.00023286091
0.0068684057 0.042310022 -0.00013712514
-0.0092368657 0.041972421 -0.00022199703
-0.0084754582 0.041892253 -0.00022762269
-0.0078583807 0.042184241 -0.00022797519
-0.0073095313 0.042182714 -0.00022815494
-0.0065275659 0.04236266 -0.00022847764
-0.0054051876 0.04233285 -0.00022880267
-0.0047507593 0.042258658 -0.00022897916
-0.0043228692 0.042382933 -0.00022918219
-0.0035226194 0.042674657 -0.00022977358
-0.0027527777 0.042234514 -0.00022980571
-0.002207652 0.042482566 -0.00022998871
-0.0017545475 0.042669225 -0.00023026764
-0.00073230651 0.04270662 -0.0002306099
-0.00015156646 0.042602945 -0.00023083854
0.00056767627 0.04272477 -0.00023119478
0.001219999 0.042771179 -0.00023144577
0.0019743496 0.042727221 -0.00023165205
0.0025753248 0.042770211 -0.00023186859
0.0032076125 0.042797741 -0.00023208698
0.0041959407 0.042903095 -0.00023246836
0.0047043706 0.042890161 -0.00023262482
0.0054680137 0.042988118 -0.00022378424
0.0061958535 0.042976353 -0.00011810288
-0.0087048672 0.042667173 -0.00020886445
-0.0078100688 0.042964615 -0.00022834679
-0.0072364705 0.043002121 -0.00022853445
-0.0064819111 0.043031771 -0.00022877753
-0.0055772867 0.043071277 -0.00022909651
-0.0048683141 0.042987995 -0.00022929301
-0.0044809994 0.043212444 -0.00022965949
-0.0035388595 0.043155532 -0.00023007486
-0.0028745485 0.043125104 -0.00023024809
-0.0023374935 0.04304871 -0.00023021596
-0.00080947054 0.043300703 -0.00023091258
-0.00024234364 0.043249525 -0.00023108814
0.0005290634 0.043409862 -0.00023154262
0.0012782563 0.043259762 -0.00023174984
0.0018852095 0.043667637 -0.00023219362
0.0026847399 0.043534223 -0.0002323715
0.0031983641 0.043498673 -0.00023250887
0.0041065621 0.04375805 -0.00023070769
0.0047691958 0.043659031 -0.00020608259
-0.0080482392 0.043451268 -0.00016784482
-0.0071338126 0.043391448 -0.00022873562
-0.0064508896 0.043747004 -0.00022913236
-0.0057250741 0.043649446 -0.00022934424
-0.0051675909 0.04377728 -0.00022970093
-0.0044180788 0.043971419 -0.00023024762
-0.0038717552 0.04375381 -0.00023031374
-0.003057838 0.043590195 -0.00023046741
-0.0023763012 0.043984171 -0.00023063365
-0.0017897298 0.043812446 -0.00023081666
-0.00095831451 0.04382702 -0.00023121014
-0.00024771923 0.043843921 -0.00023136102
0.00048488728 0.044168334 -0.00023183925
0.0019264745 0.04430934 -0.00023255264
0.0025626717 0.044242553 -0.00023275334
0.0034165517 0.044136561 -0.00022714445
0.0039691376 0.044301931 -0.00015478488
-0.006581245 0.044311062 -0.00018203678
-0.0058675073 0.044307515 -0.00021968037
-0.0052240761 0.044342212 -0.0002300851
-0.0045423112 0.04433547 -0.00023041712
-0.0036559352 0.044731952 -0.00023097778
-0.0030679526 0.044567499 -0.0002309205
-0.002288989 0.044618919 -0.00023094751
-0.0015176677 0.044762883 -0.00023147231
-0.00092362973 0.044769995 -0.00023175916
-0.00023461273 0.044712398 -0.00023184065
0.00034155603 0.044624656 -0.00023195334
0.0010307131 0.044912782 -0.00022968976
0.0017654039 0.044949576 -0.00020828983
0.0027005337 0.044730268 -0.00020507164
-0.00015585148 0.045424517 -0.00020004483
0.00035148719 0.045380443 -0.00018463098
0.0083177928 0.03119617 -0.00022792863
0.0089289667 0.031127591 -0.00022801245
0.0096489284 0.03130867 -0.00022152672
0.0082275895 0.031863209 -0.00022832956
0.0090128602 0.031945512 -0.00022863969
0.009621745 0.031978525 -0.00022150157
0.010411268 0.032020822 4.9527735e-06
0.0079757515 0.03243082 -0.00022853632
0.0089655174 0.0326344 -0.00022895634
0.0099364882 0.032564364 -0.0002234024
0.010430077 0.032845456 -5.1300973e-05
0.0081623066 0.033181824 -0.00022892701
0.0085432781 0.033652421 -0.00022924645
0.0096012186 0.033435419 -0.00022952119
0.01023068 0.033344407 -0.00017928937
0.0081967702 0.034179047 -0.00022930698
0.0086914785 0.034026086 -0.00022942387
0.0096909385 0.034057941 -0.0002297773
0.010274438 0.034131605 -0.00015336461
0.0074905884 0.034590833 -0.00022947555
0.0079826415 0.034590557 -0.00022962922
0.0087817321 0.034788053 -0.00023007579
0.0094955834 0.034819059 -0.00023015076
0.010263103 0.034910273 -0.00014858041
0.0072990078 0.035356961 -0.00022962736
0.0080673415 0.035274137 -0.00022992119
0.0087279622 0.035636302 -0.00023027975
0.0092763463 0.03556136 -0.00023049163
0.010132413 0.035661131 -0.00017082877
0.0072767204 0.035986282 -0.00022983318
0.0080028977 0.036190975 -0.00023020105
0.0085891113 0.036193497 -0.00023040501
0.010142427 0.036298227 -0.00011250656
0.0071930876 0.036795605 -0.00023024948
0.0081299581 0.036699954 -0.00023051351
0.0086578308 0.036688264 -0.00023068395
0.0090386393 0.036584727 -0.00023075799
0.0099987593 0.036834925 -0.00011735782
0.0072913547 0.037472606 -0.00023062201
0.007883776 0.037591267 -0.00023088325
0.0085944235 0.037623696 -0.00023114029
0.009287864 0.037650123 -0.00022194162
0.010020643 0.037597038 1.3596378e-05
0.0074058305 0.038503088 -0.00023119943
0.007790687 0.038067944 -0.00023109559
0.0084148543 0.038237743 -0.00023139687
0.009319149 0.038258806 -0.0001974036
0.0072079455 0.038646914 -0.00023125904
0.0079862187 0.038946934 -0.0002316013
0.0087055713 0.038960937 -0.000231863
0.0092881527 0.038981415 -9.7210519e-05
0.0065083038 0.039562821 -0.00023134379
0.0069471435 0.039577752 -0.00023150677
0.0077453381 0.039424926 -0.0002317261
0.0084959958 0.03957694 -0.00021037506
0.0069950656 0.040163923 -0.0002318467
0.007680072 0.040336363 -0.00022635143
0.0084680272 0.040306326 -0.00013752747
0.0063333772 0.040809691 -0.00023209397
0.0069630723 0.040945347 -0.00023238314
0.0077208802 0.041026939 -0.00020565046
0.0060651973 0.041527927 -0.00023240596
0.0069581172 0.041613784 -0.0002179076
0.0074803974 0.041745838 -0.00011784304
0.0062167123 0.042327601 -0.00023286091
0.0068684057 0.042310022 -0.00013712514
0.0061958535 0.042976353 -0.00011810288
-0.0097302394 0.041393213 -0.00022510719
-0.00926458 0.041267652 -0.00022702711
-0.0086445324 0.041377183 -0.00022729486
-0.0077631762 0.041567285 -0.00022768881
-0.0092368657 0.041972421 -0.00022199703
-0.0084754582 0.041892253 -0.00022762269
-0.0078583807 0.042184241 -0.00022797519
-0.0073095313 0.042182714 -0.00022815494
-0.0065275659 0.04236266 -0.00022847764
-0.0054051876 0.04233285 -0.00022880267
-0.0047507593 0.042258658 -0.00022897916
-0.0043228692 0.042382933 -0.00022918219
-0.0035226194 0.042674657 -0.00022977358
-0.0087048672 0.042667173 -0.00020886445
-0.0078100688 0.042964615 -0.00022834679
-0.0072364705 0.043002121 -0.00022853445
-0.0064819111 0.043031771 -0.00022877753
-0.0055772867 0.043071277 -0.00022909651
-0.0048683141 0.042987995 -0.00022929301
-0.0044809994 0.043212444 -0.00022965949
-0.0035388595 0.043155532 -0.00023007486
-0.0028745485 0.043125104 -0.00023024809
-0.0023374935 0.04304871 -0.00023021596
-0.00080947054 0.043300703 -0.00023091258
-0.00024234364 0.043249525 -0.00023108814
0.0005290634 0.043409862 -0.00023154262
0.0018852095 0.043667637 -0.00023219362
-0.0080482392 0.043451268 -0.00016784482
-0.0071338126 0.043391448 -0.00022873562
-0.0064508896 0.043747004 -0.00022913236
-0.0057250741 0.043649446 -0.00022934424
-0.0051675909 0.04377728 -0.00022970093
-0.0044180788 0.043971419 -0.00023024762
-0.0038717552 0.04375381 -0.00023031374
-0.003057838 0.043590195 -0.00023046741
-0.0023763012 0.043984171 -0.00023063365
-0.0017897298 0.043812446 -0.00023081666
-0.00095831451 0.04382702 -0.00023121014
-0.00024771923 0.043843921 -0.00023136102
0.00048488728 0.044168334 -0.00023183925
0.0019264745 0.04430934 -0.00023255264
0.0025626717 0.044242553 -0.00023275334
0.0034165517 0.044136561 -0.00022714445
-0.006581245 0.044311062 -0.00018203678
-0.0058675073 0.044307515 -0.00021968037
-0.0052240761 0.044342212 -0.0002300851
-0.0045423112 0.04433547 -0.00023041712
-0.0036559352 0.044731952 -0.00023097778
-0.0030679526 0.044567499 -0.0002309205
-0.002288989 0.044618919 -0.00023094751
-0.0015176677 0.044762883 -0.00023147231
-0.00092362973 0.044769995 -0.00023175916
-0.00023461273 0.044712398 -0.00023184065
0.00034155603 0.044624656 -0.00023195334
0.0010307131 0.044912782 -0.00022968976
0.0017654039 0.044949576 -0.00020828983
0.0027005337 0.044730268 -0.00020507164
-0.0037653553 0.045137364 -0.00020802254
-0.0030927975 0.045141913 -0.00021194667
-0.002533626 0.04525584 -0.00021667313
-0.0017217732 0.04550172 -0.00019513629
-0.0010492059 0.045532022 -0.00018940819
-0.00015585148 0.045424517 -0.00020004483
0.00035148719 0.045380443 -0.00018463098
-0.0077537396 0.0084880888 -3.7915073e-05
-0.0090959407 0.0070815771 -1.2867153e-05
-0.0077537396 0.0084880888 -3.7915073e-05
-0.0067012548 0.027474917 -0.00022081845
-0.0060270815 0.027521079 -0.00022102008
-0.0056063947 0.027527349 -0.000221211
-0.0048197689 0.027443731 -0.00022140052
-0.0040481682 0.027666701 -0.00021550665
-0.0034000797 0.027577208 -0.00019577472
-0.0026531366 0.027748527 -4.1192397e-06
-0.0020434177 0.027871273 0.00020727981
0.00072419702 0.028030051 5.4916367e-05
0.0022171023 0.028139247 -0.00022427412
-0.0065120775 0.02810788 -0.00022135908
-0.0054453467 0.028299809 -0.0002218578
-0.0048464434 0.028316298 -0.00017491356
-0.0043415688 0.028418429 5.5075623e-05
-0.0034516682 0.028115822 0.00012520421
-0.0029772688 0.028123856 0.00036964286
0.00096759177 0.028342912 0.00037456956
0.0014446173 0.0284224 0.00017533172
0.0022072592 0.02872836 5.0651841e-05
0.0028815828 0.028806265 -0.00019969279
0.0034805832 0.028754454 -0.00022504106
0.0041318182 0.029067194 -0.00022545736
0.0050639519 0.028989701 -0.00022571348
-0.0063204654 0.028832056 -0.00022186898
-0.005517663 0.028950512 -0.00016270857
-0.0047956095 0.028952269 0.00029440783
0.0028836245 0.02923465 1.4795922e-05
0.0035582306 0.029624954 -0.00010746624
0.0040969178 0.029512743 -0.00022568833
0.0047736443 0.029514832 -0.00022590579
0.0034657856 0.029969966 0.00010402314
0.0041162707 0.030202977 -0.0001772223
0.004850632 0.030229863 -0.00022637006
-0.0067012548 0.027474917 -0.00022081845
-0.0060270815 0.027521079 -0.00022102008
-0.0056063947 0.027527349 -0.000221211
-0.0048197689 0.027443731 -0.00022140052
-0.0040481682 0.027666701 -0.00021550665
-0.0034000797 0.027577208 -0.00019577472
-0.0026531366 0.027748527 -4.1192397e-06
-0.0020434177 0.027871273 0.00020727981
0.00072419702 0.028030051 5.4916367e-05
0.0022171023 0.028139247 -0.00022427412
-0.0065120775 0.02810788 -0.00022135908
-0.0054453467 0.028299809 -0.0002218578
-0.0048464434 0.028316298 -0.00017491356
-0.0043415688 0.028418429 5.5075623e-05
-0.0034516682 0.028115822 0.00012520421
-0.0029772688 0.028123856 0.00036964286
0.00096759177 0.028342912 0.00037456956
0.0014446173 0.0284224 0.00017533172
0.0022072592 0.02872836 5.0651841e-05
0.0028815828 0.028806265 -0.00019969279
0.0034805832 0.028754454 -0.00022504106
0.0041318182 0.029067194 -0.00022545736
0.0050639519 0.028989701 -0.00022571348
-0.0063204654 0.028832056 -0.00022186898
-0.005517663 0.028950512 -0.00016270857
-0.0047956095 0.028952269 0.00029440783
0.0028836245 0.02923465 1.4795922e-05
0.0035582306 0.029624954 -0.00010746624
0.0040969178 0.029512743 -0.00022568833
0.0047736443 0.029514832 -0.00022590579
-0.0062506106 0.0295856 -0.00017302204
-0.0058277966 0.02969292 0.00015151687
0.0034657856 0.029969966 0.00010402314
0.0041162707 0.030202977 -0.0001772223
0.004850632 0.030229863 -0.00022637006
-0.0068397466 0.03019651 -0.00022234209
-0.0064741932 0.030340945 6.5365806e-05
0.00429672 0.030998161 -2.2070482e-05
0.0046924842 0.030849883 -0.0002267356
-0.0066253794 0.030750666 0.00017490983
0.004256079 0.031498265 0.00027701538
0.0047100736 0.031681672 -6.4619817e-05
0.0047161225 0.032559499 0.00015095994
0.0049169688 0.032943401 1.1848286e-05
0.0048730979 0.034283355 0.00013791025
0.0047473316 0.035164412 0.00020423625
-0.0073786308 0.035077326 0.00022527203
0.00472712 0.035868321 1.5124679e-06
-0.0073266355 0.035866112 7.9602003e-05
0.0044438932 0.036553591 3.0477531e-05
-0.0073108273 0.036664225 -0.00015829504
-0.0067925332 0.036885317 0.00018013455
0.0038703431 0.037391488 0.00015536137
0.0043023317 0.037238494 -9.8535791e-05
-0.0074126488 0.037181795 -0.00022493303
-0.0068928404 0.037365455 -0.00013193488
0.003291528 0.038211308 9.270478e-05
0.0037206516 0.038057495 -0.00010566507
0.0043849759 0.037838921 -0.00022992119
-0.0075908629 0.038045309 -0.00022581592
-0.0068801008 0.037994631 -0.00020457897
-0.0061191898 0.037972916 0.00013639592
0.0025565245 0.03882309 0.00015188381
0.0029234476 0.038676847 6.0908496e-05
0.0037475217 0.038636912 -0.00020476617
0.0042580003 0.038881827 -0.00023034355
-0.007702752 0.038773574 -0.00022614701
-0.0069327923 0.038595155 -0.00022627693
-0.0060752952 0.038733032 -0.00019505573
-0.0055239312 0.038730811 6.0384162e-05
-0.0049205776 0.038969167 0.00025559869
0.0021960465 0.03923526 3.8290396e-05
0.0029484038 0.039374463 -0.00023007626
0.0036513293 0.039570343 -0.00023041898
-0.0076310816 0.03943022 -0.00022650184
-0.007014662 0.039407756 -0.00022669742
-0.0062182564 0.039295051 -0.00022693723
-0.005500799 0.039395835 -0.00022402918
-0.0047120377 0.039538566 -0.00010989141
-0.0041767312 0.039586101 8.9833513e-05
-0.0035844347 0.039676741 0.00023860857
-0.0026667556 0.039967615 0.0002862839
-0.0022718732 0.040004503 0.00027741585
2.180459e-05 0.040037904 0.0001818873
0.000838537 0.039777961 0.00019819941
0.0015299858 0.039660871 -7.0184469e-06
0.0024036453 0.039980713 -0.00023026345
0.0027266573 0.040083323 -0.0002304255
0.0036327925 0.039963532 -0.00023067789
0.0042208955 0.039987888 -0.00023085298
-0.0075139049 0.040014084 -0.00022684457
-0.0069449348 0.04003359 -0.00022705458
-0.0063064313 0.040178634 -0.00022736937
-0.0057871481 0.040173709 -0.00022753328
-0.0047088368 0.040009964 -0.00022777403
-0.0041361395 0.04026502 -0.00020299759
-0.0035134442 0.040300533 -0.00016495492
-0.0028025398 0.0404534 -0.00019595213
-0.0020371149 0.040437974 -8.9815818e-05
-0.0013693534 0.040301219 3.782846e-05
-0.00067986979 0.040407564 -7.729046e-05
-3.4586992e-06 0.040455714 -0.00016181637
0.00075529632 0.040549856 -0.00023005204
0.0012823974 0.040483478 -0.0002302411
0.0022299876 0.040667538 -0.00023062341
0.0026300068 0.040667892 -0.00023075705
0.0036496762 0.040779348 -0.0002311673
0.0040130056 0.040817048 -0.00023133773
0.00071614096 0.041068539 -0.0002302886
0.001196628 0.041117553 -0.00023048138
0.0029450918 0.04137031 -0.00023122551
0.0035924367 0.041425649 -0.00023148116
-0.0069302376 0.031567775 0.00059710257
-0.0059315171 0.037982691 0.00063280761
-0.0052683232 0.038640745 0.00062273908
-0.0049292725 0.03890083 0.00062047504
-0.022155726 0.011730749 -0.00060782628
-0.02117008 0.011897033 -0.00060823606
-0.020752527 0.012008298 -0.00060845725
-0.019756038 0.011928263 -0.00060879206
-0.019069416 0.011850608 -0.00060895784
-0.018702097 0.011822831 -0.00060905376
-0.017157007 0.012170681 -0.00060976902
-0.016447498 0.012141876 -0.00061001489
-0.015725952 0.012268659 -0.0006103171
-0.015066587 0.012192216 -0.00056720432
-0.022038126 0.012442604 -0.0005825907
-0.021574054 0.012348677 -0.00057071261
-0.020678453 0.01240301 -0.00048782723
-0.019832183 0.01237029 -0.00049313111
-0.019328197 0.012384993 -0.00058016554
-0.018509377 0.012775224 -0.00048046093
-0.017942633 0.012679758 -0.00060974713
-0.017140934 0.012788995 -0.00061009265
-0.016568769 0.012815029 -0.00061031291
-0.015839512 0.012869222 -0.00061058393
-0.015213712 0.012808236 -0.0006107497
-0.022178199 0.012954497 -0.00048740674
-0.01808985 0.013256948 -0.00034332275
-0.017124351 0.013630685 -0.00060318178
-0.016683213 0.013405379 -0.00061056809
-0.015722819 0.013672667 -0.00061102724
-0.015045464 0.01349625 -0.00061114505
-0.015910516 0.014174772 -0.00061122049
-0.015254928 0.01416356 -0.0006114128
-0.021262158 0.012879074 0.00033806171
-0.020671332 0.012743883 -6.8230554e-05
-0.020026935 0.01273524 3.88138e-05
-0.019436391 0.012852328 0.00011561252
-0.018900916 0.013001721 0.00024143513
-0.022112567 0.013357278 0.00011190027
-0.021421541 0.012954368 2.3194589e-05
-0.018463826 0.013241734 6.0829334e-05
-0.018097742 0.013441482 -6.809365e-05
-0.017696997 0.013881378 0.00025417563
-0.019336335 0.012691631 0.00076267589
-0.022163544 0.013125157 0.0008498216
-0.021668931 0.013113298 0.00059883203
-0.018535895 0.013186819 0.0007235473
-0.022696316 0.01174929 -0.00060765026
-0.022155726 0.011730749 -0.00060782628
-0.02117008 0.011897033 -0.00060823606
-0.020752527 0.012008298 -0.00060845725
-0.019756038 0.011928263 -0.00060879206
-0.019069416 0.011850608 -0.00060895784
-0.018702097 0.011822831 -0.00060905376
-0.017157007 0.012170681 -0.00060976902
-0.016447498 0.012141876 -0.00061001489
-0.015725952 0.012268659 -0.0006103171
-0.015066587 0.012192216 -0.00056720432
-0.022635531 0.012340968 -0.00060796691
-0.022038126 0.012442604 -0.0005825907
-0.021574054 0.012348677 -0.00057071261
-0.020678453 0.01240301 -0.00048782723
-0.019832183 0.01237029 -0.00049313111
-0.019328197 0.012384993 -0.00058016554
-0.018509377 0.012775224 -0.00048046093
-0.017942633 0.012679758 -0.00060974713
-0.017140934 0.012788995 -0.00061009265
-0.016568769 0.012815029 -0.00061031291
-0.015839512 0.012869222 -0.00061058393
-0.015213712 0.012808236 -0.0006107497
-0.022808833 0.013235482 -0.00053995708
-0.022178199 0.012954497 -0.00048740674
-0.01808985 0.013256948 -0.00034332275
-0.017124351 0.013630685 -0.00060318178
-0.016683213 0.013405379 -0.00061056809
-0.015722819 0.013672667 -0.00061102724
-0.015045464 0.01349625 -0.00061114505
-0.022771128 0.013555394 -0.00039423537
-0.017210094 0.014136554 -0.00042213919
-0.016588429 0.014248262 -0.0006110291
-0.015910516 0.014174772 -0.00061122049
-0.015254928 0.01416356 -0.0006114128
-0.023449367 0.014448427 -0.00045854226
-0.016803963 0.014872865 -0.00047125714
-0.015985278 0.014933638 -0.00061157718
-0.015285674 0.015071078 -0.00061185053
-0.016682329 0.015732141 -0.00044084387
-0.016053729 0.015649958 -0.00061191339
-0.015202682 0.01578314 -0.00061223423
-0.016618535 0.016438756 -0.0004999768
-0.016043572 0.016316442 -0.00061224774
-0.015400108 0.016337084 -0.00061245542
-0.016883206 0.016834551 -0.00036080321
-0.015987417 0.017061071 -0.00061263051
-0.015461799 0.016974967 -0.00061275857
-0.023773102 0.017179053 -0.00059130369
-0.023309767 0.017542988 -0.00039245654
-0.016819408 0.017590463 -0.00056254258
-0.016053408 0.017699525 -0.00061292108
-0.015394425 0.017767264 -0.00061316183
-0.023886127 0.017810442 -0.00061027752
-0.023101797 0.017937085 -0.00043596886
-0.017436016 0.018365592 -0.00057778461
-0.016942376 0.018461566 -0.00061303936
-0.016342029 0.018510833 -0.00061324984
-0.015710531 0.018459391 -0.00061338767
-0.023828685 0.018553626 -0.00061068079
-0.023131052 0.018718084 -0.0006067995
-0.022485172 0.018831566 -0.00053199381
-0.02171061 0.019006768 -0.00028476119
-0.018682051 0.019082146 -0.00040099025
-0.01833752 0.019107739 -0.00054793991
-0.017622698 0.019029999 -0.00061302399
-0.016753174 0.019091122 -0.00061342353
-0.016170982 0.018913103 -0.00061349338
-0.015523497 0.019332007 -0.00061387056
-0.023952715 0.019387443 -0.00061107753
-0.023454605 0.019166172 -0.00061112922
-0.022551613 0.01953258 -0.00061161863
-0.021975733 0.019439582 -0.00057870708
-0.021124439 0.019632168 -0.00056357775
-0.020316662 0.019536704 -0.00046957238
-0.019701961 0.019720094 -0.00055962754
-0.019062741 0.019599294 -0.00059052091
-0.018369833 0.019770864 -0.00061314274
-0.017561277 0.019923396 -0.00061354693
-0.016300244 0.019899616 -0.00061395345
-0.015579119 0.019987997 -0.0006039869
-0.023846978 0.020228799 -0.0006115525
-0.023305042 0.020054346 -0.00061163399
-0.022760287 0.02021879 -0.00061186729
-0.021822382 0.020317111 -0.00061223004
-0.021200614 0.020210693 -0.00061235577
-0.0204296 0.020302314 -0.00061266543
-0.019924052 0.020301301 -0.00061287219
-0.019122569 0.020363595 -0.00061321957
-0.018302921 0.020519998 -0.00061358325
-0.017391719 0.020613328 -0.00061396882
-0.016656751 0.020497654 -0.000614163
-0.016425287 0.020561758 -0.00061014807
-0.01663061 0.021198114 -0.00059193652
-0.021262158 0.012879074 0.00033806171
-0.020671332 0.012743883 -6.8230554e-05
-0.020026935 0.01273524 3.88138e-05
-0.019436391 0.012852328 0.00011561252
-0.018900916 0.013001721 0.00024143513
-0.022112567 0.013357278 0.00011190027
-0.021421541 0.012954368 2.3194589e-05
-0.018463826 0.013241734 6.0829334e-05
-0.018097742 0.013441482 -6.809365e-05
-0.022760361 0.014018404 1.0848045e-05
-0.022398101 0.013567216 0.00030385051
-0.017696997 0.013881378 0.00025417563
-0.017492205 0.014163052 -9.2722476e-06
-0.023181725 0.014705364 7.4378215e-05
-0.017122988 0.014895602 3.4130178e-05
-0.016985387 0.014940164 -0.00024917629
-0.023348587 0.015402959 0.00026013423
-0.023249919 0.015010976 1.1028722e-05
-0.01698076 0.015722414 9.1269612e-05
-0.023438392 0.015818555 6.7647547e-05
-0.016958017 0.016273133 -2.7909875e-05
-0.023521019 0.016488759 -0.00027544471
-0.023355594 0.016538672 0.00013498589
-0.017149892 0.016929811 4.7838315e-05
-0.016997803 0.016771873 -0.00023167301
-0.023156375 0.017252479 0.00020188279
-0.01745506 0.017640138 -3.5446137e-06
-0.022854885 0.01777936 -7.6544471e-05
-0.022583982 0.018108314 0.0001809923
-0.018301893 0.018541452 4.1265972e-05
-0.017861694 0.018264476 -9.4867311e-05
-0.022244886 0.018507138 -2.5972724e-05
-0.021703199 0.018836113 -6.0874037e-05
-0.021161489 0.019011745 3.4291297e-06
-0.020289561 0.019163808 7.022731e-05
-0.019583434 0.019078108 0.0002267994
-0.018907655 0.018928595 4.5476481e-06
-0.018539682 0.018670138 -7.9678372e-05
-0.020576766 0.019267391 -0.00022645108
-0.019336335 0.012691631 0.00076267589
-0.022163544 0.013125157 0.0008498216
-0.021668931 0.013113298 0.00059883203
-0.018535895 0.013186819 0.0007235473
-0.022856236 0.013948668 0.00080768391
-0.022405015 0.013576746 0.00064245798
-0.023151478 0.01450496 0.00077811629
-0.017185064 0.01486377 0.00057505164
-0.023320189 0.015292192 0.00056592003
-0.023503317 0.015790265 0.00082182232
-0.023378534 0.016224001 0.00073988736
-0.023316344 0.016664742 0.00067547895
-0.023078047 0.017467655 0.00072472636
-0.023110721 0.017946623 0.00088043883
-0.022408094 0.018287975 0.00071906392
-0.021801738 0.018848697 0.0007768441
-0.021068923 0.019088194 0.00070684403
-0.020492727 0.019142054 0.00084964558
-0.01774141 0.011529752 -0.0006092228
-0.02117008 0.011897033 -0.00060823606
-0.020752527 0.012008298 -0.00060845725
-0.019756038 0.011928263 -0.00060879206
-0.019069416 0.011850608 -0.00060895784
-0.018702097 0.011822831 -0.00060905376
-0.017900899 0.011833311 -0.00060932338
-0.022038126 0.012442604 -0.0005825907
-0.021574054 0.012348677 -0.00057071261
-0.020678453 0.01240301 -0.00048782723
-0.019832183 0.01237029 -0.00049313111
-0.019328197 0.012384993 -0.00058016554
-0.018509377 0.012775224 -0.00048046093
-0.017942633 0.012679758 -0.00060974713
-0.020671332 0.012743883 -6.8230554e-05
-0.020026935 0.01273524 3.88138e-05
-0.019436391 0.012852328 0.00011561252
-0.018900916 0.013001721 0.00024143513
-0.019336335 0.012691631 0.00076267589
-0.021228552 0.010886829 -0.0006077243
-0.020632347 0.01111376 -0.00060805352
-0.020041583 0.011169077 -0.0006083115
-0.019204367 0.011297993 -0.00060863839
-0.018536845 0.011253955 -0.00060881535
-0.01774141 0.011529752 -0.0006092228
-0.02117008 0.011897033 -0.00060823606
-0.020752527 0.012008298 -0.00060845725
-0.019756038 0.011928263 -0.00060879206
-0.019069416 0.011850608 -0.00060895784
-0.018702097 0.011822831 -0.00060905376
-0.017900899 0.011833311 -0.00060932338
-0.022038126 0.012442604 -0.0005825907
-0.021574054 0.012348677 -0.00057071261
-0.020678453 0.01240301 -0.00048782723
-0.019832183 0.01237029 -0.00049313111
-0.019328197 0.012384993 -0.00058016554
-0.018509377 0.012775224 -0.00048046093
-0.017942633 0.012679758 -0.00060974713
-0.020671332 0.012743883 -6.8230554e-05
-0.020026935 0.01273524 3.88138e-05
-0.019436391 0.012852328 0.00011561252
-0.018900916 0.013001721 0.00024143513
-0.019336335 0.012691631 0.00076267589
0.02044796 0.014047205 -0.00047459267
0.021313155 0.013989601 -0.0005094423
0.021887651 0.013903394 -0.00048418529
0.022655807 0.014081633 -0.00050888816
0.023317652 0.014095743 -0.00044814032
0.019327737 0.014527917 -0.00042713759
0.019742064 0.01449938 -0.00053080451
0.020479862 0.014513684 -0.00059825927
0.021371281 0.014476704 -0.00062411465
0.021908673 0.014577932 -0.0006243363
0.022734726 0.014642471 -0.00061778771
0.023392972 0.014459847 -0.00059849117
0.024073679 0.014690168 -0.000505351
0.018638585 0.015116353 -0.000412466
0.019265557 0.015140135 -0.00059963437
0.019943388 0.01519802 -0.00062411372
0.020507576 0.015116236 -0.00062418822
0.021184294 0.015148865 -0.00062429719
0.021910375 0.015159215 -0.00062461151
0.022528529 0.01537394 -0.00062499102
0.023429923 0.015262783 -0.00062534166
0.02420241 0.015509393 -0.00062576123
0.024669174 0.015503624 -0.00060425652
0.025151193 0.01548785 -0.00043198932
0.018439841 0.015406236 -0.00050000241
0.019122928 0.015874969 -0.00062407739
0.019661233 0.015899792 -0.00062426738
0.020408837 0.015908871 -0.00062450208
0.021200828 0.016000938 -0.00058020605
0.02187928 0.015968025 -0.00056492863
0.022600899 0.015942097 -0.00060640322
0.023418706 0.015950918 -0.0006256802
0.024057506 0.015953586 -0.00062591769
0.024814369 0.015920762 -0.00062348414
0.02543789 0.016112275 -0.00050136074
0.017832879 0.016393967 -0.0005102139
0.018308837 0.016449291 -0.00061986689
0.019130312 0.016628738 -0.00060279993
0.019839574 0.016220808 -0.00062462082
0.020545419 0.016418211 -0.00050834473
0.021090413 0.016314868 -0.00042465702
0.023375036 0.016651889 -0.00052226381
0.023873219 0.016725885 -0.00062619103
0.024507761 0.016803708 -0.0006262986
0.025423378 0.016855704 -0.00061474741
0.025775835 0.016692044 -0.00050038937
0.017768787 0.016733671 -0.00047943043
0.018115271 0.016754132 -0.00041858479
0.018766506 0.016789332 -0.00040678168
0.019570803 0.017197577 -0.00056142686
0.023435444 0.017177202 -0.00038893893
0.023704052 0.01759831 -0.00049293181
0.024563232 0.017662717 -0.00062659616
0.025369022 0.017599922 -0.00062701106
0.019754911 0.017745297 -0.00048273662
0.023987481 0.017858598 -0.00062646158
0.024613552 0.018237928 -0.00062686205
0.024921374 0.017983798 -0.00062692259
0.019495621 0.018633999 -0.0005323654
0.023737177 0.019117614 -0.0005564047
0.024664871 0.018910298 -0.00062722526
0.025021659 0.018961109 -0.00062745344
0.017663734 0.019261403 -0.00055082655
0.018186033 0.019268781 -0.00052272342
0.018891921 0.019357072 -0.00058483146
0.019481476 0.019324908 -0.00059089484
0.020123489 0.019405046 -0.00045564771
0.023221737 0.019632328 -0.0005036206
0.023670604 0.019552711 -0.00059905509
0.02451906 0.019633718 -0.00062752562
0.025007943 0.019549543 -0.00062775146
0.017703209 0.019882608 -0.00040475652
0.018067416 0.01996154 -0.00057381531
0.018808544 0.020113917 -0.00062613515
0.01949225 0.020021554 -0.00062621851
0.02017446 0.019905465 -0.00060272962
0.020895891 0.019948723 -0.00036864448
0.021409767 0.020264115 -0.00051464466
0.022255354 0.020086566 -0.00039739022
0.022865932 0.020308964 -0.0005930448
0.023647394 0.020153038 -0.00062750978
0.024478255 0.020325541 -0.00062786648
0.025170188 0.020349976 -0.00057999976
0.018070163 0.020619264 -0.00038841739
0.018755469 0.020782415 -0.00061844056
0.01934476 0.020840656 -0.00062648347
0.020131318 0.020839678 -0.00062678708
0.020877974 0.020701973 -0.00062708184
0.021756425 0.020730751 -0.00062746741
0.022277426 0.020827327 -0.00062754517
0.023104921 0.02091145 -0.00062783901
0.023644984 0.02102541 -0.00062795356
0.024474844 0.021031735 -0.00061680051
0.024902126 0.021151379 -0.000472927
0.0185351 0.021093158 -0.00046039419
0.019403324 0.021472439 -0.00061855651
0.020218723 0.021433413 -0.00062714238
0.020787552 0.021275267 -0.00062734354
0.021447033 0.021524569 -0.00062774075
0.022230284 0.021532737 -0.00062795589
0.023088597 0.021637272 -0.00062815379
0.023405265 0.021544127 -0.00062136585
0.024276024 0.021646833 -0.00047098193
0.019525146 0.021978099 -0.00040423032
0.020061152 0.022073099 -0.00051062508
0.020763103 0.022168465 -0.00057237968
0.021536618 0.022137448 -0.00061476091
0.022248754 0.022299433 -0.00053730095
0.023118518 0.022373013 -0.00043829763
0.023508094 0.022087863 -0.0005171299
0.025369022 0.017599922 -0.00062701106
0.025929023 0.017658094 -0.00052377861
0.025970532 0.018460127 -0.00050547672
0.02592938 0.018928166 -0.00048033893
0.025007943 0.019549543 -0.00062775146
0.025663728 0.019698098 -0.00053852284
0.025170188 0.020349976 -0.00057999976
0.024902126 0.021151379 -0.000472927
-0.0074570072 -0.0084856506 -0.00012331828
-0.0068566282 -0.0084394738 -0.00020151865
-0.0060027125 -0.0082587888 -0.00020352099
-0.0054420368 -0.0081777284 -0.00020375522
-0.0047994638 -0.0083354143 -0.00020389492
-0.0039278069 -0.0080579054 -0.0002043359
-0.0033035486 -0.0079307174 -0.00020461204
-0.0025026808 -0.0080070719 -0.00020480901
-0.0074555143 -0.0077011525 -0.00019899523
-0.0068302089 -0.0076005482 -0.00020353869
-0.0060990215 -0.0078214994 -0.00020370167
-0.0053775548 -0.0075017484 -0.0002041012
-0.004671229 -0.0074512269 -0.00020437595
-0.004291499 -0.0073466366 -0.00020455662
-0.0031482356 -0.0072221421 -0.00020502042
-0.0026852945 -0.0075449524 -0.00020502461
-0.0018518934 -0.0073818574 -0.00020539295
-0.0010799817 -0.0072970865 -0.00020568725
-0.00057742721 -0.0070712706 -0.00020598155
0.00028553116 -0.0072561838 -0.00020615198
0.001133478 -0.0072497833 -0.00020641508
0.0017223111 -0.0070331995 -0.00020675268
0.0022156895 -0.0070728986 -0.00020689983
0.0027649582 -0.0068673049 -0.00020721694
0.0035909633 -0.0069959182 -0.0002074251
0.004435061 -0.006916462 -0.00020776736
0.0050099539 -0.0070074643 -0.00020791125
0.0057505877 -0.006625297 -0.00020839088
0.0064663193 -0.0068291998 -0.00020852545
0.0071022939 -0.0068438444 -0.0002087187
0.0079094227 -0.0065500312 -0.00020914525
-0.0075820689 -0.0068446966 -0.00020353682
-0.0068671629 -0.0071129496 -0.0002037026
-0.0061302721 -0.006855709 -0.00020408304
-0.0053813937 -0.0068430095 -0.00020434195
-0.0047129677 -0.0067719622 -0.00020455802
-0.0041299211 -0.0066638887 -0.00020486023
-0.0035281079 -0.0067652017 -0.0002049855
-0.0025546912 -0.006880729 -0.0002053841
-0.0018371363 -0.0065407967 -0.00020565093
-0.001291262 -0.006716501 -0.00020582695
-0.00043486326 -0.0064346585 -9.853486e-05
9.9363882e-05 -0.006422163 -8.1644394e-05
0.00074696948 -0.0063446262 2.1425076e-05
0.0014557198 -0.0064490703 -0.00011702068
0.0022476201 -0.0063683442 -0.00013461709
0.0030217175 -0.0061326805 -0.00016972143
0.0034970136 -0.0062470026 -0.00020766258
0.0044627311 -0.0061870436 -0.00020802813
0.0048720166 -0.0061422554 -0.00020815292
0.0060011572 -0.0059248228 -0.00020851521
0.0064232 -0.0060568578 -0.00020867353
0.0072372067 -0.0060337414 -0.00020895898
0.0078348536 -0.0059395251 -0.00020917319
-0.007907114 -0.0063526281 -0.00020351633
-0.0068383971 -0.0061447327 -0.00020397035
-0.0062282626 -0.006198097 -0.00020418642
-0.0055137919 -0.0060500703 -0.00020449003
-0.004911507 -0.0061671245 -0.00020470424
-0.0041848761 -0.0059805159 -0.00020501763
-0.0033480832 -0.0059087239 -0.00020536268
-0.0025798681 -0.0059642093 -0.0001759734
-0.0020718053 -0.0057871966 4.014466e-05
-0.0013555574 -0.0059900959 7.764902e-05
0.0036597289 -0.0054118983 7.9313293e-05
0.0041828686 -0.0055158306 -0.00019876985
0.0049198447 -0.0054530371 -0.00020854222
0.0057496959 -0.0053797564 -0.00020880252
0.0065516089 -0.00536871 -0.00020899158
0.0072727869 -0.0052521913 -0.00020924676
0.008026653 -0.0052858293 -0.00020945957
-0.0075897346 -0.005489286 -0.00020409934
-0.0070400639 -0.0053410982 -0.00020438619
-0.0063077537 -0.0055460148 -0.00020445511
-0.0052692732 -0.0053781103 -0.00020492775
-0.0047899745 -0.0054176808 -0.00020506093
-0.0041686972 -0.0051852986 -0.00020542741
-0.0035469595 -0.0052782749 -0.00020557363
-0.0028553696 -0.0053523043 4.6401285e-05
0.0050315531 -0.0047798124 -0.00012567639
0.0054411767 -0.0047974838 -0.0002089059
0.0063930568 -0.0048084487 -0.00020924117
0.0071739238 -0.0045694946 -0.000209691
0.0076153362 -0.0045381323 -0.00020986656
-0.0078326529 -0.0047613513 -0.00020462554
-0.0069275293 -0.0046588299 -0.00020499295
-0.0063578482 -0.004706542 -0.00020512985
-0.0054054982 -0.0049277255 -0.00020523043
-0.0048252316 -0.0046700146 -0.00020562112
-0.0041389684 -0.0045775077 -5.174987e-05
0.0054789544 -0.0039292863 2.6313588e-05
0.006254511 -0.0040020086 -0.00020903675
0.0070986543 -0.0038466596 -0.0002100179
0.0076116794 -0.003872995 -0.00021019112
-0.0084776692 -0.0040952605 -0.00020477315
-0.007698697 -0.0042452812 -0.00020490866
-0.0070947623 -0.0040663173 -0.00020517642
-0.0062319776 -0.0042117937 -0.00020542415
-0.0057257554 -0.0040284032 -0.00020565838
-0.0048788749 -0.0040733973 -0.00018867338
0.0061850748 -0.0031687794 -6.3501298e-05
0.006715897 -0.0033304712 -0.00021017203
0.0075923936 -0.0031892278 -0.00021056505
-0.0085725971 -0.0034816256 -0.00020511076
-0.0077512674 -0.0034302042 -0.00020536408
-0.0073991064 -0.0035498671 -0.00020537619
-0.0063958475 -0.0034040767 -0.00020574406
-0.0057505309 -0.0033447682 -0.00020595454
-0.0049826279 -0.0032969518 2.6590191e-05
0.0064470544 -0.0025086235 -9.9813566e-05
0.0066420254 -0.0028192613 -0.00021028519
0.0075064241 -0.0025069977 -0.00021068798
-0.0085021472 -0.0028150801 -0.00020534033
-0.0079643717 -0.0028919154 -0.00020554708
-0.0071904333 -0.0027901297 -0.00020585814
-0.0066019488 -0.0029061225 -0.00020602066
-0.0058064018 -0.0025334386 -0.00020262646
0.0068408041 -0.0019492314 -0.00011296663
0.0073522641 -0.0017003561 -0.00021095807
0.006835626 -0.0013357076 -3.9393082e-05
0.00047674996 -0.012000004 0.00011345465
0.0012504277 -0.011937888 0.00010216329
0.0034039749 -0.011654276 0.00011291634
-0.0023174062 -0.011644525 0.00010265596
-0.0016505357 -0.011434187 -0.00010950584
-0.00093074149 -0.011257895 -0.00017767493
-0.00026154309 -0.011526302 -0.00014389679
0.00043858899 -0.011324452 -0.00018808478
0.0013071683 -0.011226164 -0.00018986361
0.0024828934 -0.01128606 -0.00016727764
0.0032056791 -0.011263391 -0.00012593437
0.0039142333 -0.0111541 -8.9623965e-05
0.0046893884 -0.011128599 4.6073459e-05
0.0054980302 -0.010915617 0.00015402399
-0.0038449203 -0.010974387 -3.9658509e-05
-0.0031916485 -0.010856148 -0.00015841797
-0.0025464394 -0.010701145 -0.00019798195
-0.001760611 -0.010718171 -0.00020361505
-0.00086576585 -0.010613135 -0.00020406302
-0.00039107254 -0.010693581 -0.00020407652
0.00059144676 -0.010585641 -0.00020429026
0.0010691427 -0.010562993 -0.00020440295
0.0017185448 -0.010496431 -0.00020462135
0.0023101962 -0.010442173 -0.00020486861
0.0032635615 -0.010569497 -0.00020520482
0.0037558991 -0.010585261 -0.00020539807
0.0044952556 -0.01038739 -0.00020102318
0.005311552 -0.010266899 -0.00018222723
0.0060322974 -0.010314006 -0.00010248739
0.006591544 -0.01026692 7.7751465e-05
-0.0044777063 -0.010444941 -0.00015256926
-0.0038113687 -0.010207985 -0.00018815789
-0.0029816702 -0.010265823 -0.00020331331
-0.0026538693 -0.010238736 -0.00020345068
-0.001643302 -0.010137882 -0.00020392286
-0.0010681152 -0.010007845 -0.00020426791
-8.5089589e-05 -0.010063989 -0.000204504
0.00042618703 -0.010128688 -0.00020453194
0.00096385507 -0.0099882893 -0.00020472798
0.0018735426 -0.0098370863 -0.00020508002
0.0026343628 -0.0098149627 -0.00020535849
0.0032566958 -0.0097327027 -0.00020562531
0.0038547623 -0.0097301081 -0.00020583905
0.004577585 -0.0098113362 -0.00020611519
0.0054685199 -0.0096170697 -0.00020654406
0.0061745765 -0.009681805 -0.00020359131
0.0067621851 -0.0096195927 -0.00017214101
0.007232097 -0.0097028594 -5.1944517e-05
-0.0045266096 -0.0095413858 -0.00020318618
-0.0039577703 -0.0095177833 -0.00020338828
-0.0030262787 -0.0092746858 -0.00020384835
-0.0026020473 -0.00962866 -0.00020379806
-0.0017882994 -0.009283226 -0.000204287
-0.0011577845 -0.0094643859 -0.00020446442
-0.00061044021 -0.0091726966 -0.00020485604
0.00044951309 -0.0093326997 -0.00020502415
0.0011313476 -0.0092494069 -0.00020520948
0.001872452 -0.0088877687 -0.0002056635
0.002463039 -0.0092247175 -0.00020566164
0.003211804 -0.0091281999 -0.00020598155
0.0037163191 -0.0089121908 -0.00020628981
0.0043362174 -0.0089688571 -0.00020647002
0.0051985621 -0.008802223 -0.00020687608
0.0058854138 -0.0088801868 -0.00020709401
0.006636397 -0.0089288028 -0.00020735059
0.0072785001 -0.0089152893 -0.00020154379
0.0079489434 -0.0087784221 -0.00014996156
0.0087456033 -0.0086664408 6.0118735e-05
-0.0047474769 -0.0088858893 -0.00020357175
-0.0040832357 -0.0087253824 -0.00020386884
-0.003224232 -0.0088855485 -0.0002040118
-0.0025303788 -0.0087030102 -0.0002043494
-0.0017780962 -0.0087332167 -0.00020459108
-0.0011819183 -0.0086632064 -0.00020485045
-0.00046307145 -0.008826158 -0.00020507863
0.00037663273 -0.00857889 -0.00020548142
0.00091927475 -0.0084486157 -0.0002056486
0.0017896143 -0.0085685011 -0.0002058316
0.0025127246 -0.0083737373 -0.00020620273
0.0029831617 -0.0083994139 -0.00020634988
0.0040455279 -0.0081242416 -0.00020688865
0.0046144277 -0.0082523571 -0.00020700786
0.0051142308 -0.0082513206 -0.00020718249
0.0060280869 -0.008129145 -0.00020757504
0.0065299477 -0.0082955249 -0.00020765467
0.0071747582 -0.0081285071 -0.0002079918
0.0080790389 -0.0079534231 -0.00020844396
0.0086349305 -0.0080708787 -0.00016833656
0.0093107158 -0.0080988063 0.00010216422
-0.0047994638 -0.0083354143 -0.00020389492
-0.0039278069 -0.0080579054 -0.0002043359
-0.0033035486 -0.0079307174 -0.00020461204
-0.0025026808 -0.0080070719 -0.00020480901
-0.0012083515 -0.0080271866 -0.00020519039
-0.00037050925 -0.0079942821 -0.00020551216
0.00022896021 -0.0078321053 -0.00020584837
0.00097741187 -0.0077919327 -0.00020606164
0.0014876181 -0.0077635092 -0.00020622183
0.0021165109 -0.0078386944 -0.00020639412
0.002964213 -0.0078514917 -0.00020668097
0.0036582877 -0.0076886672 -0.0002070223
0.0045207567 -0.0077444119 -0.00020728773
0.0051000984 -0.0075371698 -0.00020761695
0.0059617204 -0.0074560754 -0.00020796619
0.0062294952 -0.0073611564 -0.00020811753
0.0071547464 -0.0074143326 -0.00020840624
0.0077821114 -0.0072418004 -0.00020872988
0.0086103482 -0.0073649283 -0.00020895246
0.0094631622 -0.0073202271 -0.00014381576
-0.004671229 -0.0074512269 -0.00020437595
-0.004291499 -0.0073466366 -0.00020455662
-0.0031482356 -0.0072221421 -0.00020502042
-0.0026852945 -0.0075449524 -0.00020502461
-0.0018518934 -0.0073818574 -0.00020539295
-0.0010799817 -0.0072970865 -0.00020568725
-0.00057742721 -0.0070712706 -0.00020598155
0.00028553116 -0.0072561838 -0.00020615198
0.001133478 -0.0072497833 -0.00020641508
0.0017223111 -0.0070331995 -0.00020675268
0.0022156895 -0.0070728986 -0.00020689983
0.0027649582 -0.0068673049 -0.00020721694
0.0035909633 -0.0069959182 -0.0002074251
0.004435061 -0.006916462 -0.00020776736
0.0050099539 -0.0070074643 -0.00020791125
0.0057505877 -0.006625297 -0.00020839088
0.0064663193 -0.0068291998 -0.00020852545
0.0071022939 -0.0068438444 -0.0002087187
0.0079094227 -0.0065500312 -0.00020914525
0.0087422952 -0.0068541234 -0.00020930264
0.0093775345 -0.0065089031 -0.00020520017
0.010006926 -0.0066933632 -0.00012873299
0.010495842 -0.0065365131 5.4963864e-05
-0.0047129677 -0.0067719622 -0.00020455802
-0.0041299211 -0.0066638887 -0.00020486023
-0.0035281079 -0.0067652017 -0.0002049855
-0.0025546912 -0.006880729 -0.0002053841
-0.0018371363 -0.0065407967 -0.00020565093
-0.001291262 -0.006716501 -0.00020582695
-0.00043486326 -0.0064346585 -9.853486e-05
9.9363882e-05 -0.006422163 -8.1644394e-05
0.00074696948 -0.0063446262 2.1425076e-05
0.0014557198 -0.0064490703 -0.00011702068
0.0022476201 -0.0063683442 -0.00013461709
0.0030217175 -0.0061326805 -0.00016972143
0.0034970136 -0.0062470026 -0.00020766258
0.0044627311 -0.0061870436 -0.00020802813
0.0048720166 -0.0061422554 -0.00020815292
0.0060011572 -0.0059248228 -0.00020851521
0.0064232 -0.0060568578 -0.00020867353
0.0072372067 -0.0060337414 -0.00020895898
0.0078348536 -0.0059395251 -0.00020917319
0.0084306244 -0.0059649665 -0.00020935526
0.0092982156 -0.005915978 -0.00020964956
0.0098508801 -0.0057364781 -0.00020983443
0.01053883 -0.0058802385 -9.4644725e-05
-0.004911507 -0.0061671245 -0.00020470424
-0.0041848761 -0.0059805159 -0.00020501763
-0.0033480832 -0.0059087239 -0.00020536268
-0.0025798681 -0.0059642093 -0.0001759734
-0.0020718053 -0.0057871966 4.014466e-05
-0.0013555574 -0.0059900959 7.764902e-05
0.0036597289 -0.0054118983 7.9313293e-05
0.0041828686 -0.0055158306 -0.00019876985
0.0049198447 -0.0054530371 -0.00020854222
0.0057496959 -0.0053797564 -0.00020880252
0.0065516089 -0.00536871 -0.00020899158
0.0072727869 -0.0052521913 -0.00020924676
0.008026653 -0.0052858293 -0.00020945957
0.0086363489 -0.0051533319 -0.00020976458
0.0092096385 -0.0049646664 -0.00021013292
0.0098818587 -0.0052185813 -0.00021015108
0.010623029 -0.0052506179 -0.00017895875
-0.0052692732 -0.0053781103 -0.00020492775
-0.0047899745 -0.0054176808 -0.00020506093
-0.0041686972 -0.0051852986 -0.00020542741
-0.0035469595 -0.0052782749 -0.00020557363
-0.0028553696 -0.0053523043 4.6401285e-05
0.0050315531 -0.0047798124 -0.00012567639
0.0054411767 -0.0047974838 -0.0002089059
0.0063930568 -0.0048084487 -0.00020924117
0.0071739238 -0.0045694946 -0.000209691
0.0076153362 -0.0045381323 -0.00020986656
0.0083356425 -0.004480822 -0.00021019718
0.0089246277 -0.0045140088 -0.0002104044
0.0098251756 -0.0043634125 -0.00021082768
0.010558627 -0.0045413733 -0.00021097623
-0.0054054982 -0.0049277255 -0.00020523043
-0.0048252316 -0.0046700146 -0.00020562112
-0.0041389684 -0.0045775077 -5.174987e-05
0.0054789544 -0.0039292863 2.6313588e-05
0.006254511 -0.0040020086 -0.00020903675
0.0070986543 -0.0038466596 -0.0002100179
0.0076116794 -0.003872995 -0.00021019112
0.0084656999 -0.0039772387 -0.00021046773
0.0091751693 -0.0038504847 -0.00021079415
0.0097262543 -0.0037854936 -0.00021103397
0.010385683 -0.0036959818 -0.00021132734
0.0061850748 -0.0031687794 -6.3501298e-05
0.006715897 -0.0033304712 -0.00021017203
0.0075923936 -0.0031892278 -0.00021056505
0.0083567435 -0.0032075415 -0.00021080719
0.0089608487 -0.0032104878 -0.00021102699
0.0096133212 -0.003099638 -0.00021131011
0.0066420254 -0.0028192613 -0.00021028519
0.0075064241 -0.0025069977 -0.00021068798
0.0082558766 -0.0025543044 -0.00021098601
0.0090657733 -0.0025319126 -0.00021129847
0.0096784635 -0.0021005743 -0.00021164026
0.010390419 -0.0022619073 -0.00021186937
0.0051142308 -0.0082513206 -0.00020718249
0.0060280869 -0.008129145 -0.00020757504
0.0051000984 -0.0075371698 -0.00020761695
0.0059617204 -0.0074560754 -0.00020796619
0.0062294952 -0.0073611564 -0.00020811753
0.0071547464 -0.0074143326 -0.00020840624
0.0077821114 -0.0072418004 -0.00020872988
0.0086103482 -0.0073649283 -0.00020895246
0.0094631622 -0.0073202271 -0.00014381576
0.004435061 -0.006916462 -0.00020776736
0.0050099539 -0.0070074643 -0.00020791125
0.0057505877 -0.006625297 -0.00020839088
0.0064663193 -0.0068291998 -0.00020852545
0.0071022939 -0.0068438444 -0.0002087187
0.0079094227 -0.0065500312 -0.00020914525
0.0087422952 -0.0068541234 -0.00020930264
0.0093775345 -0.0065089031 -0.00020520017
0.010006926 -0.0066933632 -0.00012873299
0.010495842 -0.0065365131 5.4963864e-05
0.0044627311 -0.0061870436 -0.00020802813
0.0048720166 -0.0061422554 -0.00020815292
0.0060011572 -0.0059248228 -0.00020851521
0.0064232 -0.0060568578 -0.00020867353
0.0072372067 -0.0060337414 -0.00020895898
0.0078348536 -0.0059395251 -0.00020917319
0.0084306244 -0.0059649665 -0.00020935526
0.0092982156 -0.005915978 -0.00020964956
0.0098508801 -0.0057364781 -0.00020983443
0.01053883 -0.0058802385 -9.4644725e-05
0.0049198447 -0.0054530371 -0.00020854222
0.0057496959 -0.0053797564 -0.00020880252
0.0065516089 -0.00536871 -0.00020899158
0.0072727869 -0.0052521913 -0.00020924676
0.008026653 -0.0052858293 -0.00020945957
0.0086363489 -0.0051533319 -0.00020976458
0.0092096385 -0.0049646664 -0.00021013292
0.0098818587 -0.0052185813 -0.00021015108
0.010623029 -0.0052506179 -0.00017895875
0.011232347 -0.0050169895 -1.0854565e-05
0.0050315531 -0.0047798124 -0.00012567639
0.0054411767 -0.0047974838 -0.0002089059
0.0063930568 -0.0048084487 -0.00020924117
0.0071739238 -0.0045694946 -0.000209691
0.0076153362 -0.0045381323 -0.00020986656
0.0083356425 -0.004480822 -0.00021019718
0.0089246277 -0.0045140088 -0.0002104044
0.0098251756 -0.0043634125 -0.00021082768
0.010558627 -0.0045413733 -0.00021097623
0.011287292 -0.0043850192 -0.0001322059
0.011686952 -0.004418463 0.00012158789
0.0054789544 -0.0039292863 2.6313588e-05
0.006254511 -0.0040020086 -0.00020903675
0.0070986543 -0.0038466596 -0.0002100179
0.0076116794 -0.003872995 -0.00021019112
0.0084656999 -0.0039772387 -0.00021046773
0.0091751693 -0.0038504847 -0.00021079415
