# .PCD v0.7 - Point Cloud Data file format
VERSION 0.7
FIELDS x y z
SIZE 4 4 4
TYPE F F F
COUNT 1 1 1
WIDTH 1228
HEIGHT 1
VIEWPOINT 0 0 0 1 0 0 0
POINTS 1228
DATA ascii
0.020308137 0.04941117 -0.0073890565
0.020995827 0.049098954 -0.0073416559
-0.0156101 0.05007825 -0.0072783269
-0.015021316 0.050134316 -0.0073873769
-0.014460863 0.050133385 -0.007441062
-0.013878627 0.050364587 -0.0074535059
-0.013157071 0.050137248 -0.0074541927
-0.012796393 0.050053488 -0.0074545722
-0.012051096 0.050000846 -0.0074556153
-0.01152943 0.050205048 -0.007456807
-0.010912487 0.050083466 -0.007457546
-0.010318609 0.050038483 -0.0074583683
-0.0096976692 0.05012529 -0.0074595101
-0.0089313854 0.04984666 -0.0074601909
-0.0085380999 0.050205678 -0.0074614249
-0.0079016425 0.050041206 -0.0074621011
-0.0071663363 0.050123718 -0.0074634231
-0.0066608023 0.050047915 -0.0074640689
-0.0060931677 0.050098196 -0.0074625588
-0.0055021034 0.050072499 -0.007438466
-0.0049146572 0.050168328 -0.0074328673
-0.0042853262 0.050119553 -0.0073713716
-0.0037678394 0.050232876 -0.0073814923
-0.0032485628 0.050276924 -0.0073299324
-0.0026772877 0.050264001 -0.0072212289
-0.0016134068 0.05034516 -0.0072318986
-0.001334251 0.050349437 -0.0072183236
0.0060181534 0.050303705 -0.0072709783
0.0066424729 0.050289556 -0.0073184334
0.0071075661 0.050195046 -0.0073233908
0.0078179035 0.05006383 -0.0073450441
0.008320827 0.050021902 -0.0073863575
0.0088719018 0.049947977 -0.0074105905
0.0095716873 0.050024841 -0.0074639469
0.010038591 0.049970426 -0.0074813692
0.010719581 0.049931653 -0.0074913166
0.01129623 0.049867835 -0.0074921031
0.01199478 0.049916975 -0.0074932426
0.012519935 0.050095957 -0.0074943546
0.013193152 0.049998716 -0.0074952077
0.013710105 0.049886573 -0.00749578
0.014354212 0.049880356 -0.007496763
0.014874683 0.04989494 -0.0074975789
0.015370237 0.049777132 -0.0074981339
0.016132556 0.050060503 -0.0074998736
0.016712984 0.050015286 -0.0075007463
0.017306641 0.049966767 -0.0075016087
0.017758932 0.049841572 -0.0075021246
0.018707585 0.04997259 -0.0074735545
0.019029412 0.049965285 -0.007432343
0.019737003 0.049778897 -0.0073519088
0.020141687 0.049652539 -0.0073012626
-0.014517453 0.050611012 -0.0072831647
-0.013838298 0.050726324 -0.0074000685
-0.013254842 0.050658718 -0.0074531231
-0.012768618 0.050682828 -0.0074557704
-0.012120903 0.050755586 -0.0074569099
-0.011549074 0.050831363 -0.0074579204
-0.010813231 0.050752647 -0.0074588936
-0.010300709 0.050729964 -0.0074596554
-0.0096112732 0.050745156 -0.00746076
-0.00900832 0.050766155 -0.0074616885
-0.0085557867 0.050600547 -0.0074621048
-0.0078936862 0.050645743 -0.0074631972
-0.0072069988 0.050710462 -0.0074643786
-0.0067004929 0.050674137 -0.0074651027
-0.0061097094 0.050643288 -0.0074659875
-0.005503979 0.050849445 -0.0074673118
-0.0049113301 0.050697945 -0.0074679614
-0.004371522 0.050692555 -0.0074688084
-0.0036823598 0.050610393 -0.0074697472
-0.0030536684 0.0505853 -0.0074538961
-0.0025727847 0.05056379 -0.0074326922
-0.0019094764 0.050628196 -0.0074065151
-0.0013962858 0.050750896 -0.0074736476
-0.0006544916 0.050635338 -0.0073882379
-2.1135522e-05 0.050684087 -0.0074085239
0.0003855328 0.050624598 -0.0073782662
0.0011085116 0.050741643 -0.0074223541
0.0015901371 0.050705474 -0.0073695015
0.0023194507 0.050705127 -0.0073792059
0.0030169177 0.050655782 -0.0073828762
0.0035026742 0.050670318 -0.0074084969
0.0041693687 0.050579689 -0.0073419195
0.0048653958 0.050598536 -0.0073823216
0.0053647398 0.050632145 -0.0074543832
0.0059319856 0.050653417 -0.007451707
0.0065040044 0.050686106 -0.0074492288
0.0071966993 0.050546546 -0.0074820286
0.0076861535 0.050561618 -0.0074876575
0.0082247676 0.050610773 -0.0074885804
0.0089490376 0.050622407 -0.0074897278
0.0095954649 0.050619014 -0.0074907341
0.0099762753 0.050559033 -0.0074912366
0.01066198 0.050588757 -0.0074923891
0.011275101 0.050512411 -0.0074932268
0.011864476 0.050658032 -0.0074943742
0.012572641 0.050645895 -0.0074954326
0.01305912 0.05062636 -0.0074961325
0.01364638 0.05053873 -0.0074968836
0.014399544 0.05060121 -0.0074981423
0.014971367 0.050691016 -0.0074991761
0.015593697 0.050551873 -0.0074998974
0.016054884 0.050618555 -0.0075007426
0.016663088 0.050613437 -0.007499665
0.017368846 0.050567582 -0.0074825324
0.017914839 0.050617609 -0.0073861196
0.018427074 0.050413579 -0.0073554693
-0.013210158 0.051232886 -0.0073370696
-0.01267511 0.051332548 -0.0073813573
-0.012070129 0.05142194 -0.0074086115
-0.011394305 0.051229272 -0.0074570514
-0.010833579 0.05137321 -0.0074599702
-0.010229658 0.051392429 -0.007460942
-0.0095858686 0.051388904 -0.0074619204
-0.0090366993 0.051415969 -0.0074628154
-0.0085217208 0.051371258 -0.007463525
-0.0079128714 0.051297497 -0.00746434
-0.0072158193 0.051320508 -0.007465438
-0.0066117598 0.051278982 -0.0074663321
-0.0060038636 0.051369518 -0.0074674566
-0.0054878858 0.051195525 -0.0074679591
-0.0048887492 0.051347978 -0.0074691372
-0.0043159346 0.051336545 -0.0074700359
-0.0035306809 0.051163998 -0.0074709496
-0.0030419577 0.05135176 -0.0074720695
-0.002434704 0.051376726 -0.0074730827
-0.0019157209 0.051271789 -0.0074737333
-0.0012704727 0.051225532 -0.0074747098
-0.00085827417 0.051269576 -0.0074754739
8.5379288e-06 0.05126876 -0.0074768839
0.00053317857 0.05122659 -0.0074776812
0.0011175177 0.051275957 -0.0074787159
0.0016992127 0.051308002 -0.0074797068
0.002401961 0.051184554 -0.0074806423
0.002940987 0.051246725 -0.0074815531
0.0035186156 0.051274765 -0.0074824998
0.0040722624 0.051224481 -0.007483243
0.0047826306 0.051222809 -0.0074843429
0.0054211393 0.051366542 -0.0074855704
0.005875947 0.051080786 -0.0074857757
0.0065352367 0.051150572 -0.0074869175
0.0071428684 0.051283654 -0.0074880878
0.0077240714 0.051157646 -0.007488769
0.0082034897 0.05126309 -0.0074896999
0.0089923767 0.051150091 -0.0074907327
0.0094962502 0.051126733 -0.0074914936
0.010190834 0.051079173 -0.0074925125
0.010776503 0.051177241 -0.0074936412
0.011286428 0.051120803 -0.0074943383
0.011781915 0.051131796 -0.0074951304
0.012562509 0.051123053 -0.007496289
0.013060033 0.051183593 -0.0074971514
0.013777248 0.051191926 -0.0074982559
0.01432499 0.051041324 -0.007498825
0.014881072 0.051166002 -0.0074999128
0.015539971 0.051257931 -0.0074903881
0.016133737 0.051247217 -0.0074619106
0.016762357 0.051120121 -0.0073937071
0.01730348 0.05101664 -0.0073396992
0.01765014 0.050844688 -0.0073550167
-0.012285284 0.051727004 -0.0072074663
-0.011405006 0.051863655 -0.0073433192
-0.010826659 0.051917087 -0.0074089491
-0.010381173 0.051893912 -0.0074560978
-0.0097233467 0.051924266 -0.0074590025
-0.0089147212 0.05197943 -0.007464014
-0.0085826805 0.051879168 -0.0074643223
-0.0077478164 0.051958021 -0.0074657523
-0.0074196351 0.051855903 -0.0074660797
-0.0067538791 0.051882874 -0.0074671754
-0.0063085398 0.052160084 -0.0074683614
-0.0054360735 0.051806536 -0.0074691051
-0.0049783597 0.052035626 -0.0074702306
-0.0042746444 0.051946439 -0.0074711661
-0.0036575671 0.051949598 -0.0074721496
-0.0030171957 0.051857181 -0.0074729887
-0.0025664631 0.051874295 -0.0074737528
-0.0017884386 0.051917452 -0.0074750925
-0.0012745386 0.051896002 -0.0074758958
-0.00072457548 0.051869359 -0.007476755
-0.0001037227 0.051878948 -0.0074777873
0.00055259065 0.051935229 -0.0074789496
0.0010917673 0.051967587 -0.0074798982
0.0017229402 0.051907133 -0.0074808155
0.0023022394 0.051812764 -0.0074815461
0.0027776647 0.051832747 -0.0074823387
0.0035949277 0.051793184 -0.0074835303
0.0040098643 0.051763851 -0.0074841361
0.0047421688 0.051834386 -0.0074853478
0.0054152776 0.051796161 -0.0074863099
0.0059362585 0.051741958 -0.0074870251
0.0065338174 0.051805232 -0.0074880361
0.0071132421 0.051850904 -0.0074890163
0.0077638961 0.051851295 -0.0074900221
0.0082662236 0.051847011 -0.0074908109
0.0089738537 0.051805921 -0.0074918447
0.0095282951 0.051834889 -0.0074928077
0.01006948 0.051790193 -0.0074935951
0.010753869 0.051881257 -0.007494871
0.011337016 0.051859833 -0.0074957572
0.011950005 0.051789198 -0.0074965539
0.012466982 0.051684175 -0.0074971588
0.013203925 0.051847391 -0.0074985763
0.013787836 0.051755525 -0.0074993158
0.014354135 0.051731996 -0.0074848994
0.014832506 0.051766269 -0.0074452916
0.015437475 0.051637966 -0.0074331467
0.016060557 0.051456776 -0.0074182372
-0.010210652 0.052419178 -0.0072772009
-0.0096274372 0.052484624 -0.0073584663
-0.0090659885 0.052491955 -0.0074217687
-0.008501349 0.05248785 -0.0074615562
-0.0077926856 0.052509073 -0.0074666534
-0.0072289165 0.05242645 -0.0074674091
-0.0067594354 0.052528229 -0.007468326
-0.0061137145 0.052530151 -0.0074693467
-0.0054436428 0.052520007 -0.0074703619
-0.0049760528 0.052561831 -0.0074711614
-0.0043341131 0.052393325 -0.0074718734
-0.0036507926 0.052520014 -0.0074731736
-0.0030824624 0.052351996 -0.0074737594
-0.0025825477 0.052489184 -0.0074747982
-0.0018215607 0.052473519 -0.0074760253
-0.0012583786 0.052499678 -0.0074770125
-0.0007121528 0.052348059 -0.0074776253
2.2621098e-05 0.05258311 -0.0074792155
0.00055382005 0.052556232 -0.0074800388
0.0010133481 0.052471478 -0.0074806418
0.0017405398 0.052467201 -0.0074818246
0.0022321942 0.052556109 -0.0074827597
0.0030136919 0.052563574 -0.0074839666
0.0035536278 0.052399941 -0.007484524
0.0040992093 0.05246336 -0.0074854842
0.0047958242 0.052482504 -0.0074865706
0.005426181 0.05223427 -0.007487101
0.005929003 0.052466471 -0.0074882708
0.0065627159 0.052435614 -0.0074891914
0.0071086623 0.052378125 -0.0074899364
0.0077947406 0.052400995 -0.007491034
0.0082886005 0.05240041 -0.0074918112
0.0089020049 0.052225284 -0.0074924976
0.0094783194 0.052298035 -0.0074935472
0.010163998 0.052429594 -0.0074949013
0.010790969 0.052527539 -0.0074960887
0.011297844 0.05247809 -0.007496818
0.012098286 0.05251582 -0.0074905772
0.012670768 0.052264538 -0.0074886465
0.013090585 0.052291833 -0.0074408879
0.013763871 0.05209754 -0.0074734306
0.014278795 0.052172985 -0.0073681423
0.014706572 0.052106086 -0.0073002824
-0.0090805795 0.052836433 -0.0072258739
-0.0084640235 0.052997362 -0.0072985496
-0.0079855183 0.052996881 -0.0073839161
-0.0072208126 0.053004898 -0.0074179964
-0.006758098 0.053127933 -0.0074116737
-0.0060585388 0.053098168 -0.0074565904
-0.0054748114 0.05307648 -0.0074712895
-0.0049043852 0.052967377 -0.0074719875
-0.0043525132 0.053009346 -0.0074729281
-0.0037345898 0.053178888 -0.0074742008
-0.0029495631 0.053140383 -0.0074753724
-0.0023231241 0.053018566 -0.0074761487
-0.0018524964 0.053005684 -0.0074769137
-0.0012377495 0.053013321 -0.0074779349
-0.00065407634 0.053117964 -0.0074790707
5.0481758e-06 0.053071089 -0.0074800625
0.00063506473 0.05313107 -0.0074811992
0.0010374566 0.053039327 -0.0074816858
0.0016985676 0.052961636 -0.0074826265
0.0022330282 0.053111024 -0.0074837264
0.002916124 0.05307496 -0.0074847285
0.0035543868 0.053001676 -0.0074855844
0.0041743652 0.05305931 -0.0074866307
0.0047331234 0.05302823 -0.007487413
0.0053556054 0.052994039 -0.0074883271
0.0060356604 0.053053185 -0.0074894549
0.006605187 0.052946202 -0.0074901329
0.0070891674 0.053080149 -0.0074911276
0.0077958321 0.052990966 -0.0074920654
0.0083572287 0.053078547 -0.0074931444
0.008856507 0.053034473 -0.007493855
0.0094458116 0.05299161 -0.0074887271
0.010104208 0.05281999 -0.0074955076
0.010700034 0.052993517 -0.0074599306
0.011375798 0.052979235 -0.0074334522
0.011963697 0.052866977 -0.0074100499
0.01248889 0.052792855 -0.007356409
0.012901754 0.052704282 -0.007329091
-0.0067303507 0.053435016 -0.0072629787
-0.0060787019 0.053542744 -0.0072814729
-0.0054906118 0.053553063 -0.0073500201
-0.0049557886 0.053651877 -0.0073484918
-0.0043847775 0.053660151 -0.007417832
-0.0036224353 0.053748418 -0.0074354084
-0.0030123019 0.053664342 -0.0074612861
-0.002477027 0.053720441 -0.0074622999
-0.0019079781 0.053557567 -0.0074777934
-0.0012798226 0.053656571 -0.0074753882
-0.00059518556 0.053669419 -0.0074801426
-6.4699008e-05 0.053710565 -0.0074810768
0.00055126642 0.053749207 -0.0074821468
0.001077084 0.053535793 -0.0074826134
0.001862018 0.053726263 -0.0074842325
0.002324101 0.053628732 -0.0074847816
0.0028496874 0.053451981 -0.0074853133
0.0035300672 0.053568237 -0.0074865399
0.004095458 0.053549029 -0.0074873464
0.0045963838 0.053577509 -0.0074881664
0.005172444 0.053609133 -0.0074891029
0.0059718629 0.053608585 -0.0074878
0.0064092563 0.053596377 -0.0074864971
0.0071212268 0.053693939 -0.0074627977
0.0078557208 0.053709898 -0.0074233157
0.0083015803 0.053602267 -0.0074053314
0.008894952 0.053512178 -0.007410517
0.0095088799 0.053473368 -0.0073761162
0.0098366393 0.053421322 -0.0073842416
0.010509696 0.053371929 -0.0073396275
-0.0034925176 0.054076836 -0.0072879344
-0.002789702 0.054123249 -0.0073466664
-0.0024357336 0.054133181 -0.007329829
-0.0017462209 0.054170098 -0.0073556155
-0.0012674055 0.054149274 -0.0073604365
-0.0006062343 0.054048155 -0.0074361772
-5.6788587e-05 0.054171093 -0.0074006878
0.00030928192 0.054181647 -0.0074062077
0.0011928127 0.054227021 -0.0074061174
0.0016854258 0.054318283 -0.0073763807
0.0022700708 0.05418092 -0.0074288831
0.0029670249 0.054187819 -0.00741906
0.0036079311 0.054234106 -0.0073637525
0.0041731126 0.054164164 -0.0073988778
0.0047988724 0.054095961 -0.0074017541
0.0053802016 0.053955037 -0.0074519403
0.0058699464 0.054089211 -0.0073608723
0.0065188059 0.05411667 -0.0073424103
0.0068474952 0.054007147 -0.007387097
-0.0022160353 -0.020429591 -0.0066892337
-0.0018595528 -0.020455128 -0.0068126428
-0.0010945187 -0.020494225 -0.0068290415
-0.00065018749 -0.020512562 -0.0068974756
-1.3649114e-06 -0.020577542 -0.0068259239
0.00052567734 -0.020597905 -0.0069217547
0.0011195826 -0.020659253 -0.0068115033
0.0017754789 -0.020638738 -0.0069550201
0.0023233881 -0.020654548 -0.0067502377
0.0030664119 -0.020609839 -0.006788685
0.0036450867 -0.020558875 -0.0068478659
0.0042461855 -0.020538405 -0.0068073021
0.004923427 -0.020512961 -0.006787823
0.0053682509 -0.020486616 -0.0067576254
-0.0058508283 -0.019831661 -0.0067939926
-0.0053780386 -0.019922653 -0.0068201376
-0.0047755619 -0.020040208 -0.0068318369
-0.0041738362 -0.020187635 -0.0068089585
-0.0035441008 -0.020295031 -0.0068998453
-0.0029787568 -0.02037207 -0.0067044981
-0.002368595 -0.020366454 -0.0069500199
-0.0016536721 -0.020392593 -0.0070374925
0.004931374 -0.02043611 -0.0070431111
0.0055908966 -0.020437835 -0.0069344952
0.0059974794 -0.020419845 -0.006876864
0.0067490274 -0.020342747 -0.0067289025
0.0071516675 -0.020237926 -0.0068877982
0.0077908775 -0.020114645 -0.0069011766
0.0084640924 -0.019997451 -0.0069063436
0.0088025946 -0.019921683 -0.0069757542
-0.0087112663 -0.019212343 -0.006713999
-0.0082639586 -0.019306667 -0.0068069464
-0.0079825446 -0.019366227 -0.0068158079
-0.0071285372 -0.019526538 -0.0069224779
-0.0066048512 -0.019638686 -0.0069314409
-0.0060206437 -0.019736987 -0.0070086475
0.0090981722 -0.019870888 -0.0069585517
0.0096774753 -0.019789848 -0.0068187853
0.010332885 -0.019658411 -0.0067891432
0.010753292 -0.019583886 -0.0068476917
0.011331787 -0.019434784 -0.0068939533
-0.010240252 -0.018632164 -0.0069059795
-0.0095746694 -0.018869549 -0.0068180114
-0.0091208238 -0.01904507 -0.006837951
-0.008582551 -0.019165698 -0.0070538642
0.012077672 -0.019192822 -0.0068539255
0.012571534 -0.019033786 -0.0068373689
0.013304274 -0.018798999 -0.0068581132
-0.011870455 -0.01806348 -0.0067558801
-0.01146026 -0.018187625 -0.006887102
-0.010683491 -0.018489184 -0.0067373393
-0.010414177 -0.018529091 -0.0070006531
0.013802657 -0.018646628 -0.0068033109
0.014444827 -0.018434525 -0.0068410682
0.014988269 -0.01826001 -0.0068452209
-0.013584447 -0.017432405 -0.0066682072
-0.013044016 -0.017623866 -0.0067743314
-0.012529407 -0.017805716 -0.0068446924
-0.012138359 -0.017945636 -0.0069043287
0.015288827 -0.018134782 -0.006969858
0.015689265 -0.017977349 -0.0069335257
0.016281055 -0.017743511 -0.0067968983
0.016591929 -0.01759335 -0.0069203712
-0.014723006 -0.016831797 -0.0067329761
-0.014312909 -0.01703384 -0.0067536854
-0.013881946 -0.017253451 -0.0068173548
0.016886037 -0.017448418 -0.0069120731
0.017490385 -0.017169818 -0.0068301181
0.017872773 -0.017004935 -0.0067725126
-0.015888423 -0.016194964 -0.0068662558
-0.01545472 -0.016408607 -0.0068598832
-0.014925898 -0.016726458 -0.0065928302
-0.0030557299 -0.016255438 -0.0070454571
-0.0022750914 -0.016281335 -0.007008872
-0.0018053375 -0.016349182 -0.0070388075
-0.00088289217 -0.016364507 -0.0069824485
-0.00050148263 -0.01629482 -0.0068822578
5.9003476e-05 -0.01636654 -0.0069112629
0.00070589985 -0.0164178 -0.0069128172
0.0011074414 -0.016381785 -0.0068451688
0.0019239903 -0.016478997 -0.0069348486
0.0025997506 -0.016514074 -0.007013401
0.0029997171 -0.016387766 -0.0069108503
0.0036465547 -0.016363377 -0.0069272988
0.0041876561 -0.016348824 -0.0069469567
0.0047248066 -0.016360948 -0.0069934344
0.0054783849 -0.016328959 -0.0070089442
0.0057781516 -0.016303783 -0.0070024757
0.018024812 -0.016889239 -0.0069277156
0.018597614 -0.016647439 -0.0068585454
-0.017195791 -0.015530601 -0.0065847836
-0.016687883 -0.015773896 -0.0067854188
-0.016137715 -0.016071156 -0.0067871995
-0.0053019142 -0.015713247 -0.0069686784
-0.0047658044 -0.015787276 -0.0069226809
-0.0040837959 -0.015927175 -0.0069100838
-0.0034785413 -0.016080257 -0.0069295755
-0.0029568165 -0.016112864 -0.0068956735
-0.0022995078 -0.016088622 -0.0068189967
-0.0018616187 -0.016138444 -0.0068335822
-0.0011301937 -0.016069898 -0.0067069144
-0.00055341295 -0.016154448 -0.0067451047
0.00012661266 -0.016141752 -0.0066786651
0.00071574899 -0.016162835 -0.006653944
0.00161458 -0.016250644 -0.0066837245
0.0021732142 -0.016205288 -0.00667331
0.0030178737 -0.016171968 -0.0066932924
0.0036381627 -0.016144345 -0.0067048096
0.0042440686 -0.016179278 -0.0067787152
0.0047818404 -0.016152782 -0.006786102
0.0054063196 -0.01608835 -0.0067605576
0.0063302722 -0.016188864 -0.0069583808
0.0067308918 -0.015994038 -0.0068446817
0.0073761609 -0.01586129 -0.0068418351
0.0079770191 -0.015748285 -0.0068497402
0.0083548427 -0.015818138 -0.0069950363
0.008784499 -0.015840245 -0.0071031493
0.019384423 -0.016248073 -0.0068977284
0.019818252 -0.016037799 -0.0069715567
0.020255357 -0.015825983 -0.0068030963
-0.017979831 -0.015059261 -0.006917201
-0.017433224 -0.015373054 -0.0068271314
-0.0084870839 -0.014989894 -0.0070426725
-0.0077224537 -0.015159771 -0.0069720484
-0.0070053628 -0.015153047 -0.0068048271
-0.0065088873 -0.015370884 -0.0069021229
-0.0060342429 -0.015374132 -0.0067988858
-0.0052895318 -0.015540554 -0.0067922724
-0.0049494184 -0.015582316 -0.0067578014
0.0079089925 -0.015552085 -0.0066407369
0.0085308114 -0.015531887 -0.0067452611
0.0090033198 -0.015434628 -0.0067431144
0.0097128758 -0.015397662 -0.0068485215
0.010255339 -0.015311838 -0.0068725245
0.010886148 -0.015339188 -0.0070754485
0.011251564 -0.015153395 -0.0070190215
0.020484516 -0.015673814 -0.006842833
0.020966306 -0.015320163 -0.0070087016
-0.018946243 -0.014413563 -0.0068659615
-0.018519172 -0.014698473 -0.0068539381
-0.0096952301 -0.01445949 -0.0069727916
-0.0089106904 -0.014655289 -0.0068730088
-0.0083810072 -0.014802823 -0.0068206275
-0.0079145888 -0.014866445 -0.0067343358
-0.0072888648 -0.014929112 -0.0066540735
0.010931423 -0.014973936 -0.0067399312
0.011572788 -0.014871277 -0.0068553705
0.012114775 -0.014753845 -0.0069234902
0.01271529 -0.014628156 -0.0070031583
0.021315705 -0.015102909 -0.0070038526
0.021630172 -0.014930822 -0.0068649515
0.022064697 -0.01464625 -0.0069069681
-0.019724296 -0.013860386 -0.006819074
-0.011204087 -0.013898982 -0.0069902055
-0.010706778 -0.014106045 -0.0070032557
-0.010077407 -0.014227423 -0.0068878825
-0.0096140439 -0.014239429 -0.0067277467
0.012603845 -0.014454989 -0.0067997747
0.013381374 -0.014236441 -0.0068493765
0.013940899 -0.014171228 -0.0069734035
0.0144513 -0.014026148 -0.0070043933
0.022268759 -0.014510672 -0.0069425968
0.022820007 -0.014167191 -0.0068789097
-0.020678204 -0.013191856 -0.0067024091
-0.020407749 -0.013318689 -0.0069318912
-0.012478959 -0.013305681 -0.0069146901
-0.011901778 -0.01350274 -0.006883576
-0.011275014 -0.013626911 -0.0067699505
-0.010538504 -0.01373436 -0.0066018119
0.014443172 -0.013781492 -0.0067668967
0.01511988 -0.013584286 -0.0068589272
0.015811127 -0.013466396 -0.0070705563
0.023546679 -0.013716844 -0.0068613286
0.023922397 -0.013478099 -0.0067896843
-0.021316247 -0.012697753 -0.0068222666
-0.020973621 -0.012925257 -0.0068618739
-0.014047991 -0.012580509 -0.0070303939
-0.013723874 -0.012687524 -0.0069631268
-0.013197959 -0.012764954 -0.0067650033
-0.012671713 -0.012958609 -0.0066849217
0.015756704 -0.013237783 -0.0068382928
0.016380752 -0.012987881 -0.006899327
0.016888492 -0.012828322 -0.0069886437
0.024131427 -0.013276577 -0.0069966856
0.024498856 -0.013007923 -0.0068142395
-0.022233037 -0.012003837 -0.0069092186
-0.021748608 -0.012360944 -0.0069581717
-0.015011118 -0.012063337 -0.0070457952
-0.014262026 -0.012221935 -0.0068115164
-0.013613117 -0.012384985 -0.0066263024
0.016918687 -0.012667215 -0.0068565458
0.01748322 -0.012504083 -0.0069688093
0.017931629 -0.012257609 -0.0069520334
0.024869202 -0.012673477 -0.0069158589
0.025189197 -0.012417784 -0.0069091702
-0.022744849 -0.011526137 -0.0069288779
-0.016063845 -0.011446675 -0.0070317686
-0.015555617 -0.011571805 -0.0068888804
-0.014986081 -0.011744025 -0.0067553134
0.018134657 -0.011902792 -0.0067240009
0.018693998 -0.011841841 -0.0069310749
0.019081082 -0.011639174 -0.006961273
0.025804965 -0.011905765 -0.0069396412
-0.023635861 -0.010709501 -0.0067763533
-0.023345279 -0.01095324 -0.0069243358
-0.01662598 -0.010984666 -0.0069264779
-0.016112274 -0.011139954 -0.006801269
-0.01566305 -0.011247093 -0.0066721626
0.018945292 -0.011393818 -0.0066774334
0.019192601 -0.011370738 -0.0068014599
0.019978577 -0.011009071 -0.0069545778
0.026183529 -0.011588477 -0.0069535421
0.02658792 -0.011255573 -0.0068831663
-0.024308804 -0.010105537 -0.0067268973
-0.023972658 -0.010376214 -0.0068589412
-0.017813314 -0.010230752 -0.0070176097
-0.017400624 -0.010303773 -0.0068127243
-0.016897302 -0.010592116 -0.0067328783
0.019972587 -0.010731575 -0.0067190873
0.020474585 -0.010623457 -0.0069196206
0.027350044 -0.010544689 -0.0070892251
0.027496556 -0.01051782 -0.0068599712
-0.024648055 -0.0097697815 -0.006793153
-0.018381516 -0.0096633714 -0.0069014458
-0.017975841 -0.009877908 -0.0068218326
0.020722896 -0.010282082 -0.006778094
0.021052219 -0.010143044 -0.0068527083
0.021633079 -0.0098575205 -0.0069506159
0.02779942 -0.010217129 -0.0069395062
-0.025524415 -0.0089552905 -0.0066856798
-0.025265932 -0.0091424268 -0.0069179991
-0.019004637 -0.0091741495 -0.0068967631
-0.018592516 -0.0093005411 -0.0067416336
-0.018184634 -0.009511007 -0.0066489838
0.021822561 -0.0094584329 -0.0067267399
0.022314059 -0.0094839269 -0.0070332009
0.028460125 -0.0095128966 -0.006859431
0.028698828 -0.0092602372 -0.0069452878
-0.025796585 -0.0086980015 -0.0066589569
-0.02010883 -0.0084500033 -0.0070145922
-0.019631447 -0.0085517 -0.0068046395
-0.019219356 -0.0087265689 -0.0066876691
0.022491612 -0.0090857688 -0.006808714
0.022817964 -0.0090910112 -0.0070347614
0.023318049 -0.0087687522 -0.0071368972
0.029038396 -0.0088662589 -0.0069418289
-0.020672105 -0.0079613738 -0.0069944151
-0.02029635 -0.0080114082 -0.0068027657
-0.019954655 -0.0080583002 -0.0066333357
0.023428904 -0.0083742626 -0.0069170743
0.024046944 -0.0080369385 -0.0070890239
0.029622706 -0.0082461787 -0.0068648113
0.029832743 -0.0080475137 -0.0068619549
-0.021339782 -0.0071734902 -0.0069091073
-0.021000274 -0.0073732333 -0.0068002762
-0.020423463 -0.0076541295 -0.006614876
0.023779631 -0.0078590335 -0.0067716329
0.024052426 -0.0076465425 -0.0067997975
0.024432566 -0.0075143985 -0.0069620959
0.029957445 -0.0078109335 -0.0070860912
-0.021946441 -0.006595755 -0.0069374209
-0.021440584 -0.0068189292 -0.0067176069
0.024283953 -0.0072480799 -0.0066600088
0.024755871 -0.0072406125 -0.0069790012
0.025160762 -0.0069369092 -0.0070295637
0.030350575 -0.0073927836 -0.007075083
0.030723546 -0.007060762 -0.0068749413
-0.022430807 -0.0059976266 -0.006858022
-0.022084534 -0.0062706354 -0.0068006907
-0.021710444 -0.0064838352 -0.0066710152
0.025260059 -0.0065860669 -0.0068345601
0.025657758 -0.0063998587 -0.0069683548
0.03089107 -0.006849214 -0.0070096366
0.031268895 -0.0064030956 -0.0067940676
-0.02304098 -0.005481435 -0.0069522327
-0.022821993 -0.0056162113 -0.0068872543
0.025906574 -0.006060815 -0.0068953885
0.026372038 -0.0057476242 -0.0070555266
0.03149407 -0.0060185385 -0.0070063085
0.031675007 -0.0058233468 -0.0068777101
-0.023633981 -0.004807238 -0.0069355704
-0.023276439 -0.0049651312 -0.0067875152
0.026161224 -0.0054807593 -0.0067166439
0.026604852 -0.0052961828 -0.006944078
0.026924705 -0.0051224711 -0.0070816074
0.031980596 -0.0053653209 -0.0068670781
-0.024244661 -0.0042167106 -0.007022609
-0.023858216 -0.0043866602 -0.0068249586
-0.023489043 -0.0044476939 -0.0066061709
0.026645413 -0.004942894 -0.0067458898
0.027059212 -0.0047877147 -0.0069690887
0.02748313 -0.0045014587 -0.0071148984
0.032471925 -0.0046706377 -0.0068954164
-0.024460021 -0.0036562975 -0.0068489723
-0.024037046 -0.0039127441 -0.0066496902
0.027274007 -0.0042394046 -0.0067804661
0.027736351 -0.0040572821 -0.0070241718
0.032740239 -0.0042984947 -0.0069836462
0.032922499 -0.0039120368 -0.0071623558
-0.025051426 -0.0030965945 -0.0070058433
-0.024676131 -0.0032692885 -0.0067882072
0.02784726 -0.0036020975 -0.0068147695
0.028233292 -0.0035103334 -0.0070574982
0.033228606 -0.0035668756 -0.0069808201
0.033477392 -0.0032987513 -0.0067892689
-0.02552779 -0.0024284609 -0.0069916006
-0.025103342 -0.0025947646 -0.0067323605
0.028297016 -0.0030591621 -0.0068137385
0.028861389 -0.0027922515 -0.0070852013
0.033648107 -0.0029604933 -0.007040977
-0.025673041 -0.0018366342 -0.0067715459
-0.025211625 -0.0021786294 -0.0065905969
0.028590156 -0.0025985108 -0.0067435717
0.028839784 -0.0024024749 -0.0068536326
0.033966769 -0.0025048361 -0.0069169449
0.034094796 -0.0021880483 -0.0070672873
-0.026168518 -0.0012856431 -0.0068687894
-0.025899956 -0.0011635316 -0.0065962924
0.029121278 -0.0017583813 -0.0067747962
0.029469989 -0.0016344744 -0.0070207305
0.034376085 -0.0016921411 -0.0069695534
-0.026708474 -0.0006622356 -0.006963416
-0.02622563 -0.00087954331 -0.0067013456
0.029610395 -0.0012239259 -0.0069358805
0.034648534 -0.0012309488 -0.0069354544
0.034711558 -0.0010321217 -0.0069994191
-0.027190205 0.00010305525 -0.0070061199
-0.026889538 -0.00022358114 -0.0068932432
-0.026522217 -0.00036982496 -0.00666596
0.029772229 -0.00050136581 -0.0067514307
0.030067429 -0.000554114 -0.0070438087
0.034877706 -0.00067640824 -0.0068277889
-0.02732455 0.00047028207 -0.0069455393
0.030231828 4.870613e-05 -0.0070125069
0.035092384 -5.7951387e-05 -0.0069950693
-0.027765278 0.0011215287 -0.0070340093
-0.027427338 0.0010734262 -0.0067319875
0.030225635 0.00071430695 -0.0067953607
0.030528422 0.00059486419 -0.007127854
0.035275191 0.00050168805 -0.0071010664
0.035371181 0.00071523606 -0.0069220038
-0.027862355 0.0017113967 -0.0068288157
-0.027560344 0.0016164784 -0.0065984614
0.030373804 0.0011443902 -0.0068030944
0.030598609 0.0012414526 -0.0069910404
0.035497136 0.0011829556 -0.0069977744
-0.028350519 0.0022983833 -0.0069941618
-0.028074827 0.0022289839 -0.0067915269
0.030482616 0.0017907154 -0.0067738616
0.030673925 0.0018967389 -0.0069569014
0.035666723 0.0019162039 -0.0069123013
-0.028488444 0.0028438563 -0.0068922993
-0.028168214 0.0027502836 -0.0066597005
0.030672817 0.002517096 -0.0068870345
0.035740871 0.0022782497 -0.0068381764
-0.02902743 0.0036354167 -0.007031587
-0.028621471 0.0033289501 -0.0068114055
0.030773954 0.0030181545 -0.0069345394
0.035873886 0.0029321993 -0.0069095213
-0.029007057 0.0040695714 -0.0068453257
-0.028815256 0.0040225661 -0.0066987462
0.030879315 0.0037427503 -0.0069718966
0.03588606 0.0033290084 -0.0071014632
0.035941791 0.0037162961 -0.006928199
-0.029218698 0.0046184659 -0.0068473648
0.030922793 0.0042666728 -0.0070121046
0.03589664 0.0039995583 -0.0071651926
0.035970237 0.0041227685 -0.0069358111
-0.029610973 0.0054706214 -0.0069321999
-0.029384814 0.0053165779 -0.0067557986
0.030935114 0.0048055765 -0.0070218975
0.035981596 0.0047831899 -0.0070260591
-0.029579617 0.0058630705 -0.0067513622
-0.029382024 0.0056951465 -0.0066098343
0.030766746 0.0054444494 -0.0068469816
0.035992507 0.0054421392 -0.0070530381
-0.030125035 0.0066006258 -0.0070383493
-0.029808598 0.0063543166 -0.0068185064
0.030823547 0.0061362521 -0.0069013452
0.036020517 0.006027333 -0.0070001781
-0.030238003 0.0072753616 -0.0069449386
-0.029954875 0.0069952472 -0.0067678932
0.030849904 0.0066157631 -0.0069257496
0.03602358 0.0064976295 -0.006957992
-0.030290933 0.0077153705 -0.0068749497
0.030928988 0.0071917879 -0.0070034126
0.036035269 0.0071454281 -0.0069259428
-0.03041666 0.0083495388 -0.0068188701
0.030832592 0.0078884577 -0.0069015729
0.03602396 0.0077055334 -0.0069551878
-0.030679917 0.0089042252 -0.0069317538
-0.030509893 0.0089072231 -0.0067579448
0.030925408 0.0085655572 -0.0069927182
0.036041681 0.0085939001 -0.0069005447
-0.030816911 0.0095630288 -0.0069310409
-0.030582711 0.0094461218 -0.0067039072
0.030873321 0.0090614846 -0.006937074
0.036011323 0.008986867 -0.0070775039
-0.030840343 0.0099979853 -0.006857953
0.030835496 0.0096094152 -0.006895707
0.036048375 0.0094570955 -0.0069703264
-0.03094512 0.010620505 -0.0068327305
0.030778313 0.010347086 -0.0068336274
0.036036119 0.01008882 -0.0070530744
-0.031324774 0.011562969 -0.0070305355
-0.030987537 0.011329117 -0.0067516356
0.030912999 0.010758955 -0.0069688167
0.036047161 0.010733033 -0.0069989548
-0.031352241 0.011972114 -0.0070021991
-0.031083481 0.011907423 -0.0067641493
0.030790195 0.011608155 -0.006839274
0.036083452 0.011427214 -0.006848136
-0.031402856 0.012554793 -0.0069724843
-0.03110336 0.012308143 -0.00672996
0.030885123 0.012073389 -0.0069336575
0.036041539 0.01204913 -0.0070328927
-0.031455114 0.013017981 -0.0069599613
-0.031130658 0.01306242 -0.0066564456
0.030890038 0.012780785 -0.0069350405
0.036072012 0.012600047 -0.0069522294
-0.031477433 0.013769741 -0.0069111837
-0.031194312 0.013505951 -0.0066569182
0.030965626 0.013158772 -0.0070101609
0.036071569 0.013150725 -0.0068872496
-0.031488683 0.01426816 -0.0068850159
0.030916769 0.013830978 -0.0069569005
0.036078807 0.013795524 -0.006948892
-0.031576447 0.014786715 -0.0069460236
0.030894017 0.014519011 -0.0069301799
0.036075626 0.014403773 -0.0069771698
-0.031538196 0.015432809 -0.006858414
0.030938005 0.015031669 -0.0069723851
0.036079276 0.014938546 -0.0069724508
-0.031482529 0.01607045 -0.0067818239
0.031026755 0.015595422 -0.0070599751
0.036085214 0.015625894 -0.0069691911
-0.031620402 0.016597545 -0.0069111176
0.030827604 0.016360657 -0.0068530319
0.036100745 0.016142117 -0.0069273636
-0.031588331 0.017287629 -0.0068869041
0.030863972 0.016895961 -0.0068873563
0.03608837 0.016688624 -0.0069257286
-0.031444106 0.018019747 -0.0067590484
0.031065952 0.017427176 -0.0070905429
0.036104716 0.017360374 -0.0069299354
-0.031469263 0.018368855 -0.0067870752
0.030934414 0.017983012 -0.0069535896
0.036091942 0.018071024 -0.007011699
-0.031450387 0.019143162 -0.0068151574
0.030936733 0.018752914 -0.0069520059
0.036093578 0.018422507 -0.0070488499
-0.031466167 0.019726919 -0.0068830177
0.030889506 0.019348707 -0.0069008111
0.036108896 0.019358357 -0.0070058196
-0.031363487 0.020312725 -0.0068233111
0.030954011 0.0199004 -0.0069637289
0.03612417 0.019799838 -0.0069680568
-0.031406913 0.020849369 -0.0069216089
-0.031113354 0.020837726 -0.0066416804
0.030865917 0.020589147 -0.0068703881
0.036127787 0.020407356 -0.0069482671
-0.031334288 0.021644371 -0.0069622844
-0.031097615 0.021561813 -0.0067334152
0.030914662 0.02112609 -0.0069173356
0.03611565 0.021029422 -0.0069857584
-0.03132838 0.022105003 -0.0070244716
-0.0310093 0.022163881 -0.0067408439
0.030991834 0.021685978 -0.0069931392
0.036129411 0.021639237 -0.0069730086
-0.031272721 0.02269591 -0.007063841
-0.03100211 0.022591192 -0.0067969253
0.031006187 0.022198178 -0.0070051351
0.036129855 0.022211442 -0.0070295702
-0.031178718 0.023216153 -0.0070795128
-0.03093384 0.023290547 -0.0068467101
0.031065155 0.022800243 -0.0070621623
0.036144067 0.022776086 -0.006951333
-0.030855967 0.023914242 -0.0069029415
0.030960394 0.023464732 -0.0069519524
0.036140092 0.023543194 -0.0069672382
-0.030753061 0.024345558 -0.0068960483
0.0309531 0.023963954 -0.0069419602
0.036127523 0.02388321 -0.007010106
-0.030631194 0.025141995 -0.0069592567
-0.030458942 0.024993902 -0.0067368876
0.030960426 0.024580475 -0.0069462629
0.036141872 0.024568552 -0.0070137512
-0.030663328 0.025514845 -0.0070852069
-0.030416002 0.025824217 -0.0069105024
0.031005746 0.025300916 -0.0069887694
0.036161929 0.025391798 -0.0069495849
-0.030222315 0.02626716 -0.0068638325
0.031118136 0.025845975 -0.0071005495
0.036164936 0.025855277 -0.0069369334
-0.030145757 0.026900362 -0.0069744359
-0.029838774 0.026892431 -0.0067003244
0.031022096 0.026423262 -0.0069996826
0.036151703 0.026588436 -0.0070660487
-0.030003479 0.027749095 -0.0071079312
-0.029782476 0.027511621 -0.0068249502
0.030954575 0.02707557 -0.0069275042
0.036153682 0.027121378 -0.0070769996
-0.029955178 0.027828317 -0.0070893513
-0.029650422 0.02794783 -0.006836025
0.031075384 0.027691372 -0.0070475
0.036171734 0.027540226 -0.0069999746
-0.029396093 0.028671376 -0.0068455208
-0.029239733 0.028680431 -0.0066875871
0.030928005 0.028329732 -0.0068939826
0.036175106 0.028063599 -0.0069422321
-0.029439906 0.029101688 -0.0070612235
-0.029207293 0.029275725 -0.0068897661
0.030868776 0.02892255 -0.0068305572
0.036127176 0.028871227 -0.0070512118
-0.028854348 0.030121535 -0.00686274
-0.028640723 0.030095546 -0.0066697504
0.031028314 0.02939591 -0.0069907671
0.036130048 0.02927273 -0.0069651315
-0.028502766 0.030505296 -0.0067234328
0.030961862 0.030055406 -0.0069426699
0.03606059 0.030200506 -0.007151546
0.036109466 0.029945808 -0.0068703378
-0.02841932 0.030960944 -0.0068418467
0.030896321 0.030593118 -0.0069296514
0.036028035 0.030615227 -0.007037689
-0.028311061 0.031634487 -0.0070294794
-0.027825914 0.031791136 -0.0066874702
0.030640308 0.031300876 -0.0067396555
0.030990185 0.031080339 -0.0070744115
0.035932243 0.031213019 -0.0069519407
-0.028116595 0.032044422 -0.0070359446
-0.027883625 0.032267194 -0.0069426661
0.0306719 0.031564951 -0.006798456
0.030877212 0.031782717 -0.0070304759
0.035814814 0.031734243 -0.0070125186
-0.027662728 0.032769002 -0.0069867498
-0.027271302 0.033082966 -0.0067774076
0.030554913 0.032421865 -0.0068475432
0.030876756 0.032310624 -0.0071281493
0.035675101 0.032404851 -0.0070514865
-0.027147653 0.033543434 -0.0069054617
0.03050895 0.032998946 -0.006980245
0.035455495 0.033055209 -0.0070762802
0.035502244 0.033023767 -0.0068305042
-0.026935373 0.034073755 -0.0069856793
-0.026692299 0.034143813 -0.0067958543
0.030242641 0.033752363 -0.0069516879
0.035289712 0.033593673 -0.0070090294
-0.026578026 0.034684181 -0.0069807414
-0.026188936 0.034804139 -0.0067386944
0.029920978 0.034340158 -0.0068622688
0.030228335 0.034228105 -0.0070848456
0.035141192 0.034004819 -0.0069989804
-0.026377266 0.035212856 -0.0071033686
-0.026123025 0.035268962 -0.0069373045
0.02971914 0.034860019 -0.0069397539
0.03477997 0.034867555 -0.0070081344
0.034929413 0.034529336 -0.0071731298
-0.0259012 0.035814155 -0.0070586684
-0.025526844 0.035897452 -0.0068144202
0.029377686 0.035478562 -0.0069448408
0.029560428 0.035481285 -0.007109737
0.034533039 0.035370778 -0.0068775108
-0.025705937 0.036238983 -0.0071473732
-0.025279928 0.036420055 -0.0069129039
-0.024992106 0.036568746 -0.0067620086
0.028781096 0.036255863 -0.0068381149
0.029193223 0.036096003 -0.0070909397
0.034172311 0.036021717 -0.0070600105
0.034334049 0.03577223 -0.0069918688
-0.024799442 0.037064299 -0.0069072656
-0.024461919 0.037151478 -0.0066698873
0.028288972 0.03674899 -0.0067655263
0.028592352 0.03667593 -0.0069593014
0.033691451 0.036842849 -0.0069298106
0.033879064 0.036498886 -0.0070492225
-0.024716096 0.037436258 -0.0070803142
-0.024292009 0.037662838 -0.0068614902
0.028071912 0.037303757 -0.0069511496
0.028474206 0.037161756 -0.0071789827
0.033471953 0.03713157 -0.006953517
-0.02404202 0.03822222 -0.0070152003
-0.023630882 0.038314231 -0.0067442204
0.027444659 0.037954457 -0.0068729473
0.027819248 0.037831109 -0.0070908149
0.032932486 0.037871175 -0.0070690396
0.033164948 0.037584074 -0.0069803307
-0.023430509 0.038763493 -0.0068957685
-0.023137538 0.03895412 -0.0068182275
0.026974289 0.038530372 -0.0068710637
0.027312756 0.038400069 -0.0070557492
0.032429554 0.038569573 -0.0071448376
0.032629944 0.038345773 -0.0069322474
-0.023003172 0.03944217 -0.0070432588
-0.022492334 0.03954272 -0.0067572542
0.02636851 0.039230857 -0.0068420297
0.026855042 0.038955115 -0.0070504509
0.027189691 0.038813289 -0.0072246739
0.031869996 0.039322227 -0.0072237425
0.032319546 0.038806189 -0.0069570243
-0.022274198 0.03997349 -0.006889442
-0.022046525 0.040185299 -0.0068708123
0.025711015 0.039877225 -0.0068004075
0.02619734 0.039756142 -0.007061908
0.03178722 0.03957485 -0.0069335443
-0.022108998 0.040380064 -0.0070574097
-0.021711862 0.040646683 -0.0069620125
-0.021344161 0.040851481 -0.0068407413
0.025143132 0.040491406 -0.006861561
0.025586782 0.040367756 -0.0070797009
0.026036479 0.040064372 -0.0071678828
0.031190297 0.040404677 -0.0069515789
0.031442881 0.040050171 -0.0070003495
-0.021488985 0.040977508 -0.0070485221
-0.021146124 0.041115362 -0.0068944097
-0.020776747 0.041379772 -0.0068181325
0.024519688 0.041117027 -0.0068923784
0.024887549 0.041034088 -0.0070878793
0.02539211 0.040756736 -0.0072338879
0.030595113 0.040953625 -0.0072148298
0.030903796 0.040742006 -0.0068810144
-0.020861348 0.041612491 -0.0070627751
-0.02057685 0.041779917 -0.0069776736
0.024005016 0.041570995 -0.006871148
0.024379445 0.041398577 -0.0070044468
0.024885144 0.041212156 -0.0072191507
0.030072564 0.041665599 -0.006966765
0.030360211 0.041310094 -0.006989243
-0.019880747 0.042428229 -0.0070172637
-0.019496879 0.042513069 -0.0068550785
0.023359703 0.042124681 -0.0068329684
0.02381452 0.042015627 -0.0070698219
0.029337486 0.042339914 -0.0072375955
0.029748384 0.041992057 -0.0069815465
-0.025662245 0.042743921 -0.0066643562
-0.025250049 0.043128382 -0.0068134386
-0.024965448 0.043323036 -0.007069631
-0.019664936 0.042776313 -0.0071519669
-0.019319611 0.042871308 -0.0070201149
-0.018793583 0.043190941 -0.0069521554
-0.018371575 0.043193936 -0.006704676
0.022748845 0.042800281 -0.0069296528
0.023169037 0.042511575 -0.006988409
0.028859327 0.042915657 -0.0071700616
0.029221542 0.042534735 -0.0071030264
-0.024756558 0.043574523 -0.0069343513
-0.018572589 0.04351642 -0.0070796958
-0.018213743 0.043590989 -0.0069221859
-0.017815512 0.043725781 -0.0067828852
0.021528043 0.0435801 -0.0068525965
0.022132279 0.043267485 -0.0069498736
0.028641691 0.043228246 -0.0070048682
-0.02409745 0.044161864 -0.0069162124
-0.023789214 0.044491332 -0.0067104455
-0.017952509 0.044030633 -0.0071297968
-0.017473478 0.044071484 -0.0068597817
-0.016993444 0.044371568 -0.0068141576
0.020973722 0.044006083 -0.0068794573
0.021274464 0.043860268 -0.0069360384
0.021839751 0.043622296 -0.0070725037
0.02808051 0.043828681 -0.0069756294
-0.023387251 0.044779085 -0.0070255571
-0.023088744 0.045041494 -0.0070533073
-0.017247796 0.044521417 -0.0071063749
-0.016931115 0.044742603 -0.0070963968
-0.01648128 0.044934727 -0.006985927
0.020324556 0.044592615 -0.0069840583
0.020886732 0.044299178 -0.0070724119
0.027162494 0.044567965 -0.0071873562
0.027452391 0.04435575 -0.0070935413
-0.022835944 0.045337357 -0.0069134887
-0.022498127 0.045679405 -0.0067972415
-0.016100725 0.045307655 -0.0071057361
-0.015749086 0.045321628 -0.0069504515
-0.015260299 0.045539077 -0.0069010127
0.019280497 0.045337804 -0.0069869836
0.019624393 0.045107409 -0.0069985841
0.020287342 0.044893321 -0.0072128503
0.026425198 0.045231614 -0.0071004741
0.026831415 0.044943143 -0.0069544408
-0.022178477 0.045967333 -0.0068941494
-0.021867795 0.046230912 -0.0068604224
-0.015013453 0.045770347 -0.006978103
-0.014653019 0.045887809 -0.0069090752
-0.01399277 0.046125315 -0.0067920042
0.017578088 0.045983698 -0.0067493878
0.017895138 0.045895725 -0.006820085
0.018457716 0.045840196 -0.0070367004
0.019018952 0.045649655 -0.0071302922
0.025759017 0.045839887 -0.0070073926
0.026103487 0.045557987 -0.0069981199
-0.021608792 0.046428513 -0.0069135725
-0.021107771 0.046782885 -0.0069770599
-0.01395916 0.04642513 -0.0070479121
-0.013350624 0.046595834 -0.0069026994
0.016389418 0.04662089 -0.0067629293
0.016970031 0.046493202 -0.0069226921
0.017178804 0.04638024 -0.0069193682
0.01795675 0.046218891 -0.0071422663
0.018200478 0.046174526 -0.007217708
0.025061596 0.046443183 -0.0069940826
0.025515225 0.046033341 -0.0070279194
-0.020937365 0.046922524 -0.0067543616
-0.020507848 0.047128782 -0.0071168924
-0.020072933 0.047426488 -0.0071275355
-0.013062668 0.046886537 -0.0070310785
-0.012711698 0.047042944 -0.0070017818
-0.012092622 0.047165565 -0.0068266559
-0.011443667 0.047270097 -0.0066945134
0.01533629 0.047191579 -0.0067804842
0.016145058 0.047019321 -0.0070081064
0.016677199 0.04687399 -0.0071288897
0.017108148 0.046716552 -0.0071906676
0.024105677 0.04717176 -0.0070472881
0.024586232 0.046846174 -0.0069984244
0.024913616 0.046603162 -0.006972522
-0.019889234 0.0476203 -0.0069356933
-0.019289665 0.048068222 -0.0067968569
-0.011981983 0.047504712 -0.0070962566
-0.011528028 0.047599979 -0.0070248996
-0.010902923 0.047749486 -0.0069433339
-0.010243924 0.047899369 -0.0068503376
-0.0098310234 0.048014492 -0.0068114209
0.013751483 0.047824189 -0.0068011829
0.014424684 0.047734838 -0.0069493242
0.014891232 0.047635838 -0.0070164371
0.015368179 0.04745283 -0.0070330296
0.023349026 0.047685079 -0.0070313811
0.023893831 0.047347758 -0.0069314381
-0.01909795 0.048186671 -0.0068890108
-0.018691307 0.048459627 -0.0069069937
-0.018392514 0.048590284 -0.00714267
-0.010083945 0.048215292 -0.0070900451
-0.0097080544 0.048300322 -0.0070415596
-0.0090440838 0.04835891 -0.0068599852
0.01201638 0.048451435 -0.0068011698
0.012463199 0.048333321 -0.006842941
0.013119598 0.04825959 -0.0070002805
0.013579713 0.048117757 -0.0070238225
0.014237178 0.048008949 -0.0071477797
0.02236527 0.048378859 -0.0067590484
0.022632353 0.048163492 -0.0070188334
0.023064557 0.047917016 -0.0067987442
-0.01811574 0.048849244 -0.0069620237
-0.017716894 0.04914017 -0.0069025815
-0.0085762627 0.048745941 -0.007073543
-0.0079235639 0.048950192 -0.0070412103
-0.0072092903 0.048945945 -0.0068443343
-0.0067461277 0.049068499 -0.0068647051
-0.0060976329 0.049117509 -0.0067746416
0.0096251369 0.049086127 -0.0067552421
0.010068597 0.04902282 -0.0067871199
0.010809337 0.048903041 -0.0068263947
0.011314397 0.048885934 -0.0069751153
0.011889199 0.048692502 -0.0069888895
0.012365825 0.048587278 -0.007053405
0.021457752 0.048945192 -0.0069365036
0.022038154 0.048539147 -0.007073164
-0.017412841 0.049317852 -0.0069299191
-0.017001115 0.049525995 -0.0069393353
-0.016452888 0.049810834 -0.0069302376
-0.0073393364 0.049263656 -0.0071791061
-0.0066258674 0.049346294 -0.0071078208
-0.0061234822 0.049391851 -0.0070459535
-0.005503322 0.04941627 -0.0069387462
-0.0049003838 0.049486551 -0.0068798717
-0.0044363905 0.049576685 -0.0068705785
-0.0032880311 0.049723465 -0.0067760861
0.0077425893 0.04962568 -0.0068906653
0.0082255751 0.04955912 -0.0069277869
0.00894609 0.049435411 -0.0069587491
0.0094666285 0.049378198 -0.0070132795
0.010110646 0.049268775 -0.0070421253
0.020504259 0.049538359 -0.0071311858
0.02090211 0.049249053 -0.0071884599
-0.016121378 0.049980309 -0.0069003915
-0.015574164 0.050240379 -0.0069695842
-0.01528578 0.050401099 -0.0069669215
-0.0041659037 0.049865004 -0.0071058469
-0.0038587858 0.049951363 -0.0071285106
-0.0030355703 0.050065309 -0.0070698652
-0.0025843065 0.050008226 -0.0069583692
-0.0018295817 0.050074156 -0.006974217
-0.0011958673 0.050073553 -0.0069315089
-0.00084750098 0.050199974 -0.0070354519
-0.00017591103 0.050169546 -0.0069611222
0.00050939142 0.050127484 -0.0068736486
0.001087795 0.050271098 -0.0069827219
0.0016806858 0.05021181 -0.0068841306
0.0024758468 0.050239801 -0.0069307992
0.0028569668 0.050294369 -0.0070160362
0.0035195053 0.050205406 -0.0069767572
0.004046604 0.050131377 -0.0069421958
0.0047531971 0.050115786 -0.0069811558
0.0052756192 0.050048959 -0.0069535868
0.0059491023 0.050062809 -0.0070200022
0.0065871552 0.049931094 -0.0069515151
0.0069315592 0.049956109 -0.0070470227
0.0078027472 0.049858201 -0.007136154
0.0082158595 0.049782515 -0.0071491348
0.0087365285 0.049744897 -0.007223295
0.019300053 0.05016109 -0.0070253555
0.019681359 0.050003622 -0.0069710352
0.020242468 0.049734436 -0.0069575035
-0.014997351 0.050470363 -0.0071688825
-0.014346626 0.050875068 -0.0069532897
-0.014151865 0.050924197 -0.0071228314
-0.00012138012 0.050380107 -0.0071716844
0.00070768379 0.050432146 -0.0071715028
0.0012933508 0.050466072 -0.0071684895
0.0017888856 0.050454903 -0.0071252128
0.002117855 0.050360426 -0.0070260176
0.0028641918 0.050419975 -0.0071446709
0.0036698228 0.050343957 -0.0071297297
0.0043144347 0.050331898 -0.0071674371
0.018053144 0.050814256 -0.0068634343
0.018403381 0.050626978 -0.0069875196
0.019008115 0.050325334 -0.0069470983
-0.013682974 0.05124275 -0.0068321577
-0.013208616 0.051445398 -0.0070092306
-0.012902331 0.051578566 -0.0070298426
0.016792385 0.051390607 -0.0070823128
0.017326999 0.051146131 -0.006999182
0.017773621 0.050927121 -0.0069928123
-0.012618735 0.051699731 -0.0069427975
-0.011950743 0.051923465 -0.0070112143
-0.011446141 0.052114777 -0.0069247065
-0.011086477 0.052196816 -0.0070927339
0.01558548 0.051875729 -0.007151504
0.0161762 0.051702816 -0.0069490634
0.016532661 0.051550828 -0.0069167847
-0.010799143 0.052330982 -0.0070025343
-0.010147982 0.05249016 -0.0071681393
-0.0097802104 0.052681159 -0.0070180739
-0.0093674641 0.052789513 -0.0071079005
0.013344192 0.052620266 -0.0071833367
0.013759559 0.052541737 -0.0069852178
0.014414746 0.05229786 -0.0070255091
0.014966226 0.05213343 -0.0069419276
-0.0091257486 0.052926321 -0.0068958635
-0.008450727 0.053144354 -0.0070224022
-0.0077921064 0.053322356 -0.0069495076
-0.007301345 0.053369772 -0.00714806
0.011534436 0.053265486 -0.0070987232
0.011896866 0.053129427 -0.0071080504
0.01253661 0.05296972 -0.0069303536
0.013083415 0.05277288 -0.006954683
-0.0071579078 0.053475667 -0.0068278844
-0.0066194031 0.053555608 -0.0069622118
-0.0061798836 0.053655319 -0.0069545219
-0.0055470504 0.05376602 -0.0069999611
-0.0048965514 0.05390311 -0.0069982149
0.0085692676 0.053812414 -0.0072232988
0.008962946 0.053792097 -0.0070272167
0.0094392654 0.053695757 -0.0070478893
0.010223114 0.053555578 -0.0070442031
0.010734119 0.053456798 -0.006980598
0.011282456 0.053361163 -0.0068433974
-0.0040851152 0.054060541 -0.0070103053
-0.003513763 0.054194286 -0.0069573484
-0.0031034288 0.054256555 -0.0069416268
-0.0023956785 0.054299433 -0.0069986442
-0.0018411289 0.054328956 -0.0070179533
-0.0011400314 0.054367907 -0.0070242453
-0.0007323724 0.054379594 -0.0071057412
-3.9556035e-05 0.054466274 -0.0069007534
0.00056216872 0.054491695 -0.0069858721
0.0012150006 0.054505076 -0.0071011442
0.0017386738 0.054510616 -0.0071646711
0.0023882852 0.054502737 -0.007162448
0.0029333998 0.054509308 -0.0069862129
0.0035165264 0.054477762 -0.0069366442
0.0040898891 0.054426271 -0.0069380132
0.0047748792 0.05437886 -0.0070201345
0.0053870939 0.054311894 -0.0070722471
0.0059497422 0.054279566 -0.0070373532
0.0066849855 0.054257859 -0.0069377082
0.007241304 0.054147381 -0.007019381
0.0077591971 0.054026157 -0.0070730196
0.0082631065 0.053971555 -0.0069519076
0.0012914109 0.054559417 -0.0068184151
0.0017713325 0.054589111 -0.0068094367
0.0022736469 0.054571275 -0.0069830134
0.0027303204 0.054552775 -0.0068776431
-0.0017340145 -0.010854937 -0.00055835489
-0.00039609478 -0.010981745 -0.0005404586
0.00016822605 -0.011007116 -0.00055919634
0.00077846966 -0.010954866 -0.00056836824
0.0013692664 -0.010935376 -0.00056932005
