# .PCD v0.7 - Point Cloud Data file format
VERSION 0.7
FIELDS x y z
SIZE 4 4 4
TYPE F F F
COUNT 1 1 1
WIDTH 1296
HEIGHT 1
VIEWPOINT 0 0 0 1 0 0 0
POINTS 1296
DATA ascii
0.0014118589 -0.084761597 0.3504515
0.0014608055 -0.084487364 0.35048124
0.0015097521 -0.08421313 0.35051095
0.0015586987 -0.083938889 0.3505407
0.0016076472 -0.083664656 0.35057041
0.0016565938 -0.083390422 0.35060012
0.0018045725 -0.082962915 0.34964445
0.0018534167 -0.082689255 0.34967414
0.0034692539 -0.078455344 0.33810902
0.0035168808 -0.078188501 0.33813795
0.0035645077 -0.077921666 0.33816686
0.0036121337 -0.077654824 0.3381958
0.0037573744 -0.077242687 0.33723846
0.0038048998 -0.076976418 0.33726731
0.0038524251 -0.07671015 0.33729619
0.0038999496 -0.076443881 0.33732504
0.0039949995 -0.075911336 0.33738276
0.0040425248 -0.075645067 0.33741164
0.0040900502 -0.075378798 0.33744049
0.015942298 -0.01298987 0.33418328
0.015988808 -0.01272929 0.33421153
0.016035318 -0.01246871 0.33423978
0.016128335 -0.011947549 0.33429626
0.016174845 -0.011686969 0.33432451
0.016221356 -0.011426388 0.33435276
0.016195435 -0.011170004 0.33538255
0.016242046 -0.010908858 0.33541086
0.016288657 -0.010647708 0.33543918
0.016335268 -0.010386557 0.33546749
0.016309854 -0.010127339 0.33649763
-0.0038870284 -0.11763613 0.34289971
-0.0038384879 -0.11736417 0.34292918
-0.0037899474 -0.11709221 0.34295866
-0.0037414068 -0.11682025 0.34298816
-0.0036928672 -0.11654829 0.34301764
-0.0036443267 -0.11627634 0.34304711
-0.0035957843 -0.11600437 0.34307659
-0.0035472456 -0.11573242 0.34310606
-0.0034987042 -0.11546046 0.34313554
-0.0034501636 -0.11518849 0.34316504
-0.0034016231 -0.11491653 0.34319451
-0.0033530835 -0.11464459 0.34322399
-0.0033045439 -0.11437263 0.34325346
-0.0032560015 -0.11410066 0.34328294
-0.003207461 -0.1138287 0.34331244
-0.0031589214 -0.11355674 0.34334192
-0.0031103808 -0.11328478 0.34337139
-0.0030618403 -0.11301282 0.34340087
-0.0029035676 -0.11252435 0.34245181
-0.0028551286 -0.11225296 0.34248123
-0.0028066896 -0.11198157 0.34251064
-0.0026488174 -0.11149535 0.34156129
-0.0026004808 -0.11122454 0.34159064
-0.0022855559 -0.11025667 0.33969143
-0.0022374215 -0.10998698 0.33972067
-0.002189287 -0.1097173 0.33974987
-0.0021411534 -0.10944762 0.33977911
-0.002093019 -0.10917794 0.33980834
-0.0020448845 -0.10890826 0.33983758
-0.00199675 -0.10863858 0.33986682
-0.0018401975 -0.10815976 0.33891669
-0.0017921645 -0.10789064 0.33894587
-0.0017441325 -0.10762154 0.33897504
-0.0016480675 -0.10708331 0.3390334
-0.0016000336 -0.10681419 0.33906254
-0.0015520016 -0.10654508 0.33909172
-0.0015039695 -0.10627596 0.33912089
-0.0014559356 -0.10600685 0.33915007
-0.0013004011 -0.10553372 0.33819929
-0.0012524696 -0.10526518 0.3382284
-0.0012045391 -0.10499663 0.33825752
-0.0011566076 -0.10472808 0.33828664
-0.0012157718 -0.10466127 0.33929592
-0.0011197068 -0.10412304 0.33935428
-0.0010716738 -0.10385393 0.33938345
-0.0010236409 -0.10358481 0.33941263
-0.0015019514 -0.10228173 0.34957436
-0.0014529033 -0.10200693 0.34960413
-0.0014038552 -0.10173212 0.34963393
-0.0013548071 -0.10145732 0.3496637
-0.0014108233 -0.10137287 0.35067493
-0.0013616737 -0.10109749 0.35070476
-0.0013125241 -0.10082212 0.35073462
-0.0012142248 -0.10027137 0.35079432
-0.0011650743 -0.099996001 0.35082418
-0.0011159256 -0.099720635 0.35085401
-0.001066776 -0.099445261 0.35088387
-0.0010176254 -0.099169888 0.35091373
-0.00096847583 -0.098894514 0.35094357
-0.00091932528 -0.098619141 0.35097343
-0.00087017566 -0.098343767 0.35100326
-0.00082102604 -0.098068394 0.35103312
-0.00077187549 -0.09779302 0.35106298
-0.00072272681 -0.097517654 0.35109282
-0.00067357719 -0.097242281 0.35112268
-0.00062442664 -0.096966907 0.35115251
-0.00057527702 -0.096691534 0.35118237
-0.00052612741 -0.09641616 0.35121223
-0.00047697779 -0.096140787 0.35124207
-0.00042782817 -0.095865414 0.35127193
-0.00032952894 -0.095314667 0.35133162
-0.00028037839 -0.095039293 0.35136148
-0.00023122877 -0.09476392 0.35139132
-0.00018207915 -0.094488546 0.35142118
-0.0001329286 -0.094213173 0.35145101
-8.3778985e-05 -0.093937799 0.35148087
-3.4629367e-05 -0.093662426 0.35151073
1.452025e-05 -0.093387052 0.35154057
6.3669868e-05 -0.093111686 0.35157043
0.00011281949 -0.092836305 0.35160026
0.00021111965 -0.092285566 0.35165998
0.0002602702 -0.092010185 0.35168982
0.00030941982 -0.091734819 0.35171968
0.00035856944 -0.091459446 0.35174951
0.00040771905 -0.09118408 0.35177937
0.00045686867 -0.090908706 0.35180923
0.00050601829 -0.090633325 0.35183907
0.00055516791 -0.090357959 0.35186893
0.00060431845 -0.090082578 0.35189879
0.00065346807 -0.089807212 0.35192862
0.00085236412 -0.089091145 0.35100418
0.00090141222 -0.088816337 0.35103399
0.00095046125 -0.08854153 0.35106376
0.00099950843 -0.08826673 0.35109356
0.0010485575 -0.087991931 0.35112333
0.0010976046 -0.087717123 0.35115314
0.0011466537 -0.087442316 0.35118291
0.0011957027 -0.087167509 0.35121271
0.0012447499 -0.086892709 0.35124251
0.0012937989 -0.086617909 0.35127228
0.0013918951 -0.086068302 0.35133186
0.0014409432 -0.085793495 0.35136166
0.0014899913 -0.085518695 0.35139143
0.001638215 -0.085086532 0.35043621
0.0016871607 -0.084812298 0.35046592
0.0017361073 -0.084538065 0.35049567
0.0017850539 -0.084263831 0.35052538
0.0018340005 -0.08398959 0.35055512
0.0019816123 -0.083560847 0.34959954
0.0020304574 -0.083287187 0.34962919
0.0020793034 -0.083013512 0.34965885
0.0021281475 -0.082739852 0.34968853
0.0038821055 -0.078090727 0.33716586
0.0039296299 -0.077824458 0.33719474
0.0039771553 -0.07755819 0.33722359
0.0040246798 -0.077291921 0.33725247
0.016296912 -0.012516886 0.33425349
0.016389929 -0.011995725 0.33430997
0.016436439 -0.011735145 0.33433822
0.016482949 -0.011474565 0.33436647
0.01652946 -0.011213984 0.33439472
0.016504209 -0.01095714 0.3354246
0.016479164 -0.010699162 0.33645466
0.016525878 -0.010437442 0.33648303
0.016572591 -0.010175725 0.3365114
-0.0035169311 -0.1171425 0.34297296
-0.0034683906 -0.11687054 0.34300247
-0.003419851 -0.11659858 0.34303194
-0.0033713104 -0.11632662 0.34306142
-0.003322768 -0.11605465 0.34309089
-0.0032742294 -0.1157827 0.34312037
-0.0032256879 -0.11551074 0.34314984
-0.0031771474 -0.11523878 0.34317935
-0.0031286068 -0.11496682 0.34320882
-0.0030800672 -0.11469487 0.34323829
-0.0029829852 -0.11415094 0.34329724
-0.0029344447 -0.11387899 0.34332675
-0.0028859051 -0.11360703 0.34335622
-0.0027279984 -0.1131173 0.34240723
-0.0026795594 -0.11284591 0.34243664
-0.0026311213 -0.11257453 0.34246609
-0.0025826823 -0.11230313 0.3424955
-0.0024252813 -0.11181625 0.34154618
-0.0023769429 -0.11154542 0.34157553
-0.0023286063 -0.11127461 0.34160489
-0.0018222863 -0.1092278 0.33982253
-0.0017741518 -0.10895812 0.33985177
-0.0015700366 -0.10820951 0.33893085
-0.0015220037 -0.1079404 0.33896002
-0.0014739716 -0.10767129 0.3389892
-0.0013779067 -0.10713306 0.33904755
-0.0013298728 -0.10686395 0.3390767
-0.0012818407 -0.10659483 0.33910587
-0.001126674 -0.10612046 0.33815521
-0.0010787426 -0.10585191 0.33818433
-0.0010308111 -0.10558337 0.33821341
-0.00098287966 -0.10531483 0.33824253
-0.00093494914 -0.10504628 0.33827165
-0.0008870177 -0.10477773 0.33830076
-0.00083908625 -0.10450919 0.33832988
-0.00084954593 -0.1041728 0.33936843
-0.00080151297 -0.10390368 0.33939761
-0.00075348001 -0.10363457 0.33942679
-0.0012260778 -0.10233253 0.34958881
-0.0011770297 -0.10205773 0.34961858
-0.0011279816 -0.10178293 0.34964839
-0.0010789335 -0.10150813 0.34967816
-0.0011343798 -0.10142378 0.35068941
-0.0010852301 -0.1011484 0.35071924
-0.0010360805 -0.10087303 0.35074911
-0.0009377813 -0.10032228 0.3508088
-0.00088863075 -0.10004691 0.35083866
-0.00083948206 -0.099771544 0.35086849
-0.00079033244 -0.099496171 0.35089836
-0.0007411819 -0.099220797 0.35092822
-0.00069203228 -0.098945424 0.35095805
-0.00064288173 -0.098670051 0.35098791
-0.00059373211 -0.098394677 0.35101774
-0.00054458249 -0.098119304 0.35104761
-0.00049543194 -0.09784393 0.35107747
-0.00044628326 -0.097568564 0.3511073
-0.00039713364 -0.097293191 0.35113716
-0.00034798309 -0.097017817 0.35116699
-0.00029883347 -0.096742444 0.35119686
-0.00024968386 -0.09646707 0.35122672
-0.00020053424 -0.096191697 0.35125655
-0.00015138462 -0.095916323 0.35128641
-5.3085387e-05 -0.095365576 0.35134611
-3.9348379e-06 -0.095090203 0.35137597
4.521478e-05 -0.09481483 0.3514058
9.4364397e-05 -0.094539456 0.35143566
0.00014351495 -0.094264083 0.35146549
0.00019266456 -0.093988709 0.35149536
0.00024181418 -0.093713336 0.35152522
0.0002909638 -0.093437962 0.35155505
0.00034011342 -0.093162596 0.35158491
0.00038926303 -0.092887215 0.35161474
0.0004875632 -0.092336476 0.35167447
0.00053671375 -0.092061095 0.3517043
0.00058586337 -0.091785729 0.35173416
0.00063501298 -0.091510355 0.35176399
0.0006841626 -0.091234989 0.35179386
0.00073331222 -0.090959616 0.35182372
0.00078246184 -0.090684235 0.35185355
0.00083161145 -0.090408869 0.35188341
0.000880762 -0.090133488 0.35191327
0.00092991162 -0.089858122 0.35194311
0.0011282377 -0.08914195 0.35101864
0.0011772858 -0.088867143 0.35104844
0.0012263348 -0.088592336 0.35107821
0.001275382 -0.088317536 0.35110801
0.001324431 -0.088042736 0.35113779
0.0013734782 -0.087767929 0.35116759
0.0014225272 -0.087493122 0.35119736
0.0014715763 -0.087218314 0.35122716
0.0015206235 -0.086943515 0.35125697
0.0015696725 -0.086668715 0.35128674
0.0016677687 -0.086119108 0.35134631
0.0017168168 -0.085844301 0.35137612
0.0017658649 -0.085569501 0.35140589
0.0019135168 -0.085137233 0.35045063
0.0019624624 -0.084863 0.35048035
0.002011409 -0.084588766 0.35051009
0.0020603556 -0.084314533 0.3505398
0.0021093022 -0.084040292 0.35056955
0.0022563431 -0.083611444 0.34961393
0.0023051882 -0.083337784 0.34964359
0.0041494099 -0.078139953 0.33717987
0.0041969344 -0.077873684 0.33720875
0.0042444598 -0.077607416 0.3372376
0.0042919843 -0.077341147 0.33726647
0.0043395096 -0.077074878 0.33729532
0.004387035 -0.076808609 0.3373242
0.0044345595 -0.07654234 0.33735305
0.0045296093 -0.076009795 0.33741078
0.0045771347 -0.075743526 0.33743966
0.0046246601 -0.075477257 0.3374685
0.016558506 -0.012565061 0.3342672
0.016651524 -0.012043901 0.33432367
0.016698033 -0.01178332 0.33435193
0.016744543 -0.01152274 0.33438018
0.016791053 -0.01126216 0.33440843
0.016766377 -0.01100542 0.33543834
0.016741902 -0.010747548 0.33646843
0.016788613 -0.010485828 0.3364968
0.016835328 -0.010224111 0.33652517
-0.0032439129 -0.11719278 0.34298727
-0.0031953724 -0.11692081 0.34301677
-0.0031468328 -0.11664885 0.34304625
-0.0030982923 -0.1163769 0.34307572
-0.0030497499 -0.11610493 0.3431052
-0.0030012112 -0.11583298 0.34313467
-0.0029526697 -0.11556102 0.34316415
-0.0029041292 -0.11528905 0.34319365
-0.0028555887 -0.11501709 0.34322312
-0.0028070491 -0.11474515 0.3432526
-0.0027099671 -0.11420122 0.34331155
-0.0026614266 -0.11392926 0.34334105
-0.002612887 -0.1136573 0.34337053
-0.002455553 -0.11316747 0.3424215
-0.002407114 -0.11289608 0.34245092
-0.0023586759 -0.1126247 0.34248036
-0.0023102369 -0.1123533 0.34250978
-0.0021534059 -0.11186632 0.34156042
-0.0021050675 -0.11159549 0.34158978
-0.0020567309 -0.11132468 0.34161913
-0.0018520718 -0.11056971 0.34069881
-0.0016959561 -0.1100867 0.33974904
-0.0016478216 -0.10981702 0.33977824
-0.0015996881 -0.10954734 0.33980748
-0.0015515536 -0.10927766 0.33983672
-0.0015034191 -0.10900798 0.33986595
-0.0014552847 -0.1087383 0.33989519
-0.0012998758 -0.10825927 0.338945
-0.0012518428 -0.10799015 0.33897418
-0.0012038108 -0.10772105 0.33900335
-0.0011557778 -0.10745192 0.33903253
-0.0011077458 -0.10718282 0.33906171
-0.0010597119 -0.1069137 0.33909085
-0.0010116799 -0.10664459 0.33912003
-0.00096364785 -0.10637547 0.33914921
-0.00091561396 -0.10610636 0.33917838
-0.00076122116 -0.10563302 0.33822754
-0.00071328972 -0.10536448 0.33825666
-0.0006653592 -0.10509593 0.33828577
-0.00061742775 -0.10482738 0.33831489
-0.00067545008 -0.10476078 0.33932424
-0.00062741805 -0.10449167 0.33935341
-0.00057938509 -0.10422255 0.33938259
-0.00053135213 -0.10395344 0.33941177
-0.00048331916 -0.10368432 0.33944094
-0.00043528713 -0.10341521 0.33947009
-0.00038725417 -0.10314609 0.33949926
-0.00095020514 -0.10238334 0.34960327
-0.00090115704 -0.10210854 0.34963304
-0.00085210893 -0.10183373 0.34966284
-0.00080306083 -0.10155893 0.34969261
-0.00075401273 -0.10128412 0.34972242
-0.00070496462 -0.10100932 0.34975219
-0.00065591652 -0.10073452 0.34978199
-0.00046473742 -0.099271707 0.3509427
-0.0004155878 -0.098996334 0.35097253
-0.00021448173 -0.098261289 0.35005009
-0.00016543362 -0.097986482 0.35007986
-0.00011638552 -0.097711675 0.35010967
-6.7337416e-05 -0.097436868 0.35013944
-0.00012068916 -0.0973441 0.35115165
-7.1538612e-05 -0.097068727 0.35118148
7.9807825e-05 -0.096612461 0.35022882
0.00012885593 -0.096337654 0.35025859
0.00017790403 -0.096062854 0.35028839
0.00022695214 -0.095788054 0.35031816
0.00022335909 -0.095416486 0.35136059
0.00027250964 -0.095141113 0.35139045
0.00032165926 -0.094865739 0.35142028
0.00037080888 -0.094590366 0.35145015
0.00041995943 -0.094314992 0.35147998
0.00046910904 -0.094039619 0.35150984
0.00051825866 -0.093764246 0.3515397
0.00056740828 -0.093488872 0.35156953
0.0006165579 -0.093213506 0.3515994
0.00066570751 -0.092938125 0.35162923
0.00076400768 -0.092387386 0.35168895
0.00081315823 -0.092112005 0.35171878
0.00086230785 -0.091836639 0.35174865
0.00091145746 -0.091561265 0.35177848
0.00096060708 -0.091285899 0.35180834
0.0010097567 -0.091010526 0.3518382
0.0010589063 -0.090735145 0.35186803
0.0011080559 -0.090459779 0.3518979
0.0011572065 -0.090184398 0.35192776
0.0012063561 -0.089909032 0.35195759
0.0014041103 -0.089192756 0.35103309
0.0014531584 -0.088917948 0.35106289
0.0015022075 -0.088643141 0.35109267
0.0015512547 -0.088368341 0.35112247
0.0016003037 -0.088093542 0.35115224
0.0016493509 -0.087818734 0.35118204
0.0016983999 -0.087543927 0.35121182
0.0017474489 -0.08726912 0.35124162
0.0017964961 -0.08699432 0.35127142
0.0018455451 -0.08671952 0.35130119
0.0019436413 -0.086169913 0.35136077
0.0019926894 -0.085895106 0.35139057
0.0020417375 -0.085620306 0.35142034
0.0020907857 -0.085345499 0.35145015
0.0021398338 -0.085070692 0.35147992
0.0022867108 -0.084639467 0.35052451
0.0023356574 -0.084365234 0.35055423
0.002482228 -0.083935708 0.34959865
0.0025310731 -0.083662041 0.34962833
0.0025799181 -0.083388381 0.34965798
0.0044167163 -0.078189179 0.33719388
0.0044642407 -0.07792291 0.33722275
0.0045117661 -0.077656642 0.3372516
0.0045592906 -0.077390373 0.33728048
0.004606816 -0.077124104 0.33730933
0.0046543414 -0.076857835 0.33733821
0.0047018658 -0.076591566 0.33736706
0.0047969157 -0.076059021 0.33742478
0.017052647 -0.011310336 0.33442214
0.017099153 -0.011049756 0.33445039
0.017145663 -0.010789176 0.33447862
0.017192174 -0.010528599 0.33450687
0.017098064 -0.010272497 0.33653894
-0.002861253 -0.11701712 0.34202394
-0.002812813 -0.11674571 0.34205335
-0.0028738161 -0.11669914 0.34306055
-0.0028252755 -0.11642718 0.34309003
-0.0027767331 -0.11615521 0.3431195
-0.0027281945 -0.11588326 0.34314898
-0.002679653 -0.1156113 0.34317845
-0.0026311125 -0.11533934 0.34320796
-0.0025825719 -0.11506738 0.34323743
-0.0025340323 -0.11479543 0.3432669
-0.0024369503 -0.1142515 0.34332585
-0.0022799857 -0.11376043 0.34237695
-0.0022315467 -0.11348904 0.34240636
-0.0021831067 -0.11321764 0.34243578
-0.0021346677 -0.11294626 0.34246519
-0.0020862296 -0.11267487 0.34249464
-0.0020377906 -0.11240347 0.34252405
-0.0018815314 -0.11191639 0.34157467
-0.001833193 -0.11164556 0.34160402
-0.0017848564 -0.11137474 0.34163338
-0.0015807678 -0.11061967 0.34071302
-0.001425223 -0.11013656 0.33976322
-0.0013770885 -0.10986688 0.33979243
-0.0013289549 -0.1095972 0.33982167
-0.0012808205 -0.10932752 0.3398509
-0.001232686 -0.10905784 0.33988014
-0.0011845515 -0.10878816 0.33990937
-0.001029714 -0.10830902 0.33895916
-0.00098168105 -0.10803991 0.33898833
-0.00093364902 -0.1077708 0.33901751
-0.00088561606 -0.10750168 0.33904669
-0.00083758403 -0.10723257 0.33907586
-0.00078955013 -0.10696346 0.33910501
-0.0007415181 -0.10669434 0.33913419
-0.00069348607 -0.10642523 0.33916336
-0.00064545218 -0.10615611 0.33919254
-0.00049163122 -0.10568266 0.33824167
-0.00044369977 -0.10541412 0.33827078
-0.00039576925 -0.10514557 0.3382999
-0.00034783781 -0.10487702 0.33832902
-0.0004052883 -0.10481054 0.33933839
-0.00035725627 -0.10454142 0.33936757
-0.00030922331 -0.10427231 0.33939674
-0.00026119035 -0.10400319 0.33942592
-0.00021315739 -0.10373408 0.3394551
-0.00016512536 -0.10346497 0.33948424
-0.00011709239 -0.10319585 0.33951342
-0.00072338153 -0.10270895 0.34958792
-0.00067433342 -0.10243414 0.34961772
-0.00062528532 -0.10215934 0.34964749
-0.00057623722 -0.10188454 0.34967729
-0.00052718911 -0.10160974 0.34970707
-0.00058149081 -0.1015256 0.35071838
-0.00053234119 -0.10125022 0.35074821
-0.00048319157 -0.10097485 0.35077807
-0.00038489234 -0.1004241 0.35083777
-0.00033574179 -0.10014873 0.35086763
-0.0002865931 -0.099873364 0.35089746
-0.00023744348 -0.099597991 0.35092732
-0.00018829294 -0.099322617 0.35095719
-0.00013914332 -0.099047244 0.35098702
-8.9992769e-05 -0.09877187 0.35101688
-4.0843152e-05 -0.098496497 0.35104671
8.306466e-06 -0.098221123 0.35107657
5.7457015e-05 -0.09794575 0.35110644
0.0002085343 -0.097487673 0.35015389
0.00015575532 -0.09739501 0.35116613
0.00020490587 -0.097119637 0.35119596
0.00035567954 -0.096663266 0.35024327
0.00040472765 -0.096388459 0.35027304
0.00045377575 -0.096113659 0.35030285
0.00050282385 -0.09583886 0.35033262
0.00055187196 -0.095564052 0.35036242
0.00049980357 -0.095467396 0.35137507
0.00054895412 -0.095192023 0.35140494
0.00059810374 -0.094916649 0.35143477
0.00064725336 -0.094641276 0.35146463
0.00069640391 -0.094365902 0.35149446
0.00074555352 -0.094090529 0.35152432
0.00079470314 -0.093815155 0.35155419
0.00084385276 -0.093539782 0.35158402
0.00089300238 -0.093264416 0.35161388
0.00094215199 -0.092989035 0.35164371
0.00099130254 -0.092713669 0.35167357
0.0010404522 -0.092438295 0.35170344
0.0010896027 -0.092162915 0.35173327
0.0011387523 -0.091887549 0.35176313
0.0011879019 -0.091612175 0.35179296
0.0012370516 -0.091336809 0.35182282
0.0012862012 -0.091061436 0.35185269
0.0013353508 -0.090786055 0.35188252
0.0013845004 -0.090510689 0.35191238
0.001433651 -0.090235308 0.35194224
0.0014828006 -0.089959942 0.35197207
0.0015319493 -0.089684568 0.35200194
0.0015810998 -0.089409195 0.35203177
0.0017290302 -0.088968754 0.35107735
0.0017780792 -0.088693947 0.35110712
0.0018271264 -0.088419147 0.35113692
0.0018761754 -0.088144347 0.3511667
0.0019252226 -0.08786954 0.3511965
0.0019742716 -0.087594733 0.35122627
0.0020233206 -0.087319925 0.35125607
0.0020723678 -0.087045126 0.35128587
0.0021214169 -0.086770326 0.35131565
0.002170464 -0.086495519 0.35134545
0.0022195131 -0.086220719 0.35137522
0.0022685612 -0.085945912 0.35140502
0.0023176093 -0.085671112 0.3514348
0.0023666574 -0.085396305 0.3514646
0.0024157055 -0.085121498 0.35149437
0.0024647536 -0.084846698 0.35152417
0.0026109591 -0.084415935 0.35056865
0.0026599057 -0.084141694 0.35059839
0.0028058039 -0.08371263 0.34964272
0.002854649 -0.08343897 0.34967238
0.0046840212 -0.078238405 0.33720788
0.0047315457 -0.077972136 0.33723676
0.0047790711 -0.077705868 0.33726561
0.0048265955 -0.077439599 0.33729449
0.0048741209 -0.07717333 0.33732334
0.0049216463 -0.076907061 0.33735222
0.0049691708 -0.076640792 0.33738106
0.0050642206 -0.076108247 0.33743879
0.01717471 -0.012140253 0.33435109
0.01722122 -0.011879672 0.33437935
0.01726773 -0.011619092 0.3344076
0.01731424 -0.011358512 0.33443585
0.017360747 -0.011097931 0.3344641
0.017407257 -0.010837351 0.33449233
0.017453767 -0.010576774 0.33452058
0.017360799 -0.010320884 0.33655271
-0.0025888067 -0.1170673 0.34203821
-0.0025403667 -0.11679589 0.34206763
-0.0026007988 -0.11674941 0.34307486
-0.0025522583 -0.11647746 0.34310433
-0.0025037159 -0.11620549 0.34313381
-0.0024551773 -0.11593354 0.34316328
-0.0024066358 -0.11566158 0.34319276
-0.0023580953 -0.11538962 0.34322226
-0.0023095547 -0.11511765 0.34325173
-0.0022610151 -0.11484571 0.34328121
-0.0021639331 -0.11430178 0.34334016
-0.0020075394 -0.11381061 0.34239122
-0.0019591004 -0.11353922 0.34242064
-0.0019106604 -0.11326782 0.34245005
-0.0018622214 -0.11299644 0.34247947
-0.0018137833 -0.11272505 0.34250891
-0.0017653443 -0.11245365 0.34253833
-0.001609657 -0.11196645 0.34158891
-0.0015613185 -0.11169562 0.34161827
-0.001512982 -0.11142481 0.34164762
-0.0013094647 -0.11066964 0.34072724
-0.0012612287 -0.11039938 0.34075654
-0.0012129927 -0.11012913 0.34078583
-0.0010582232 -0.10964706 0.33983585
-0.0010100887 -0.10937738 0.33986509
-0.00096195424 -0.1091077 0.33989432
-0.00091381976 -0.10883801 0.33992356
-0.00075955316 -0.10835877 0.33897331
-0.0007115202 -0.10808966 0.33900249
-0.00066348817 -0.10782055 0.33903167
-0.00056742318 -0.10728232 0.33909002
-0.00051938929 -0.1070132 0.33911917
-0.00047135726 -0.10674409 0.33914834
-0.0003179037 -0.1062694 0.33819759
-0.00026997225 -0.10600086 0.33822671
-0.00022204081 -0.10573231 0.33825579
-0.00017410936 -0.10546377 0.33828491
-0.00012617884 -0.10519522 0.33831403
-7.8247394e-05 -0.10492668 0.33834314
-3.0315947e-05 -0.10465813 0.33837226
-3.9062463e-05 -0.10432205 0.3394109
8.970499e-06 -0.10405294 0.33944008
5.7003461e-05 -0.10378382 0.33946925
-0.00044750795 -0.10275976 0.34960237
-0.00039845984 -0.10248495 0.34963217
-0.00034941174 -0.10221015 0.34966195
-0.00030036364 -0.10193534 0.34969175
-0.00025131553 -0.10166054 0.34972152
-0.00020226743 -0.10138573 0.34975132
-0.00015321933 -0.10111094 0.3497811
-0.00020674756 -0.10102576 0.35079256
-0.00010844832 -0.10047501 0.35085225
-5.9297774e-05 -0.10019964 0.35088211
-1.0149088e-05 -0.099924274 0.35091195
3.900053e-05 -0.0996489 0.35094181
8.8151079e-05 -0.099373527 0.35097167
0.0001373007 -0.099098153 0.3510015
0.00018645125 -0.09882278 0.35103136
0.00023560086 -0.098547406 0.3510612
0.00038631167 -0.098088093 0.35010877
0.00043535978 -0.097813286 0.35013857
0.00048440788 -0.097538479 0.35016835
0.00053345691 -0.097263679 0.35019815
0.00058250409 -0.096988879 0.35022792
0.00063155312 -0.096714072 0.35025772
0.00068060122 -0.096439265 0.3502875
0.00072964933 -0.096164465 0.3503173
0.00077869743 -0.095889665 0.35034707
0.00082774553 -0.095614858 0.35037687
0.00087679364 -0.095340051 0.35040668
0.00082539814 -0.095242932 0.35141942
0.00087454775 -0.094967559 0.35144925
0.00092369737 -0.094692186 0.35147911
0.00097284792 -0.094416812 0.35150895
0.0010219975 -0.094141439 0.35153881
0.0010711472 -0.093866065 0.35156867
0.0011202968 -0.093590692 0.3515985
0.0011694464 -0.093315326 0.35162836
0.001218596 -0.093039945 0.3516582
0.0012677466 -0.092764579 0.35168806
0.0013168962 -0.092489205 0.35171792
0.0013660467 -0.092213824 0.35174775
0.0014151963 -0.091938458 0.35177761
0.001464346 -0.091663085 0.35180745
0.0015134956 -0.091387719 0.35183731
0.0015626452 -0.091112345 0.35186717
0.0016117948 -0.090836965 0.351897
0.0016609444 -0.090561599 0.35192686
0.001710095 -0.090286218 0.35195673
0.0017592446 -0.090010852 0.35198656
0.0018083933 -0.089735478 0.35201642
0.0018575438 -0.089460105 0.35204625
0.0020049037 -0.089019559 0.3510918
0.0020539528 -0.088744752 0.35112157
0.0021029999 -0.088469952 0.35115138
0.002152049 -0.088195153 0.35118115
0.0022010962 -0.087920345 0.35121095
0.0022501452 -0.087645538 0.35124072
0.0022991942 -0.087370731 0.35127053
0.0023482414 -0.087095931 0.35130033
0.0023972904 -0.086821131 0.3513301
0.0024463376 -0.086546324 0.3513599
0.0024953866 -0.086271524 0.35138968
0.0025444347 -0.085996717 0.35141948
0.0025934828 -0.085721917 0.35144925
0.0026425309 -0.08544711 0.35147905
0.0026915791 -0.085172303 0.35150883
0.0027406272 -0.084897503 0.35153863
0.0027896753 -0.084622696 0.3515684
0.0029352079 -0.084192388 0.35061282
0.0030805347 -0.083763227 0.34965712
0.0031293798 -0.083489567 0.34968677
0.0049513271 -0.078287639 0.33722189
0.0049988516 -0.07802137 0.33725077
0.005046377 -0.077755101 0.33727962
0.0050939014 -0.077488832 0.3373085
0.0051414268 -0.077222563 0.33733734
0.0051889522 -0.076956294 0.33736622
0.0052364767 -0.076690026 0.33739507
0.017436305 -0.012188429 0.3343648
0.017482813 -0.011927849 0.33439305
0.017529324 -0.011667268 0.33442131
0.017575834 -0.011406688 0.33444956
0.017622342 -0.011146108 0.33447781
0.017668853 -0.010885527 0.33450603
0.017715361 -0.010624951 0.33453429
0.017692704 -0.010366813 0.33556449
-0.0022306992 -0.11625578 0.34314811
-0.0021821605 -0.11598382 0.34317759
-0.0015311311 -0.11309981 0.34148574
-0.0015897756 -0.11304661 0.34249374
-0.0015413375 -0.11277522 0.34252319
-0.0013861186 -0.11228734 0.3415738
-0.001337782 -0.11201653 0.34160316
-0.0012894436 -0.1117457 0.34163252
-0.001241107 -0.11147489 0.34166187
-0.0010381611 -0.1107196 0.34074143
-0.00098992512 -0.11044934 0.34077072
-0.00094168913 -0.1101791 0.34080002
-0.00078749098 -0.10969692 0.33985004
-0.0007393565 -0.10942724 0.33987927
-0.00069122203 -0.10915755 0.33990851
-0.00064308755 -0.10888787 0.33993775
-0.00048939232 -0.10840853 0.33898744
-0.00044135936 -0.10813941 0.33901662
-0.00039332733 -0.1078703 0.33904579
-0.00029726233 -0.10733207 0.33910415
-0.00024922844 -0.10706296 0.33913329
-0.00020119641 -0.10679384 0.33916247
-4.8313756e-05 -0.10631905 0.33821172
-3.8230792e-07 -0.10605051 0.33824083
4.754914e-05 -0.10578196 0.33826992
9.5480587e-05 -0.10551342 0.33829904
0.0001434111 -0.10524487 0.33832815
0.00019134255 -0.10497633 0.33835727
0.000239274 -0.10470778 0.33838639
0.00023109838 -0.10437181 0.33942503
0.00027913135 -0.10410269 0.3394542
0.00032716431 -0.10383358 0.33948338
-0.00012258627 -0.10253575 0.34964666
-7.3538162e-05 -0.10226095 0.34967643
-2.4490058e-05 -0.10198615 0.34970623
2.4558045e-05 -0.10171135 0.34973601
7.3606148e-05 -0.10143654 0.34976581
0.00012265425 -0.10116174 0.34979558
6.9695991e-05 -0.10107667 0.35080704
0.00016799523 -0.10052592 0.35086673
0.00021714577 -0.10025055 0.3508966
0.00026629446 -0.099975184 0.35092643
0.00031544408 -0.09969981 0.35095629
0.00036459463 -0.099424437 0.35098615
0.00041374424 -0.099149063 0.35101599
0.00046289479 -0.09887369 0.35104585
0.00051204441 -0.098598316 0.35107568
0.00066218525 -0.098138899 0.35012326
0.00071123336 -0.097864091 0.35015306
0.00076028146 -0.097589284 0.35018283
0.00080933049 -0.097314484 0.35021263
0.00085837767 -0.097039685 0.35024241
0.0009074267 -0.096764877 0.35027221
0.0009564748 -0.09649007 0.35030198
0.0010055229 -0.09621527 0.35033178
0.001054571 -0.095940471 0.35036156
0.0011526672 -0.095390856 0.35042116
0.0012017153 -0.095116049 0.35045093
0.0011509913 -0.095018469 0.35146374
0.0012001409 -0.094743095 0.3514936
0.0012492915 -0.094467722 0.35152343
0.0012984411 -0.094192348 0.35155329
0.0013475907 -0.093916975 0.35158315
0.0013967403 -0.093641602 0.35161299
0.0014458899 -0.093366235 0.35164285
0.0014950396 -0.093090855 0.35167268
0.0015933397 -0.092540115 0.3517324
0.0016424903 -0.092264734 0.35176224
0.0016916399 -0.091989368 0.3517921
0.0017407895 -0.091713995 0.35182193
0.0017899391 -0.091438629 0.35185179
0.0018390887 -0.091163255 0.35188165
0.0018882384 -0.090887874 0.35191149
0.001937388 -0.090612508 0.35194135
0.0019865385 -0.090337127 0.35197121
0.0020356881 -0.090061761 0.35200104
0.0022317292 -0.089345172 0.35107648
0.0022807773 -0.089070365 0.35110629
0.0023298264 -0.088795558 0.35113606
0.0023788735 -0.088520758 0.35116586
0.0024279226 -0.088245958 0.35119563
0.0024769697 -0.087971151 0.35122544
0.0025260188 -0.087696344 0.35125521
0.0025750678 -0.087421536 0.35128501
0.002624115 -0.087146737 0.35131481
0.002673164 -0.086871937 0.35134459
0.0027712602 -0.08632233 0.35140416
0.0028203083 -0.086047523 0.35143396
0.0028693564 -0.085772723 0.35146374
0.0029184045 -0.085497916 0.35149354
0.0029674526 -0.085223109 0.35152331
0.0030165007 -0.084948309 0.35155311
0.0030655488 -0.084673502 0.35158288
0.0033064196 -0.084087491 0.34964186
0.0033552647 -0.083813824 0.34967154
0.0034041097 -0.083540164 0.3497012
0.0051711071 -0.078603134 0.33720705
0.0052186325 -0.078336865 0.3372359
0.005266157 -0.078070596 0.33726478
0.0053136824 -0.077804327 0.33729362
0.0053612068 -0.077538058 0.3373225
0.0054087322 -0.077271789 0.33735135
0.0054562576 -0.07700552 0.33738023
0.0055037821 -0.076739252 0.33740908
0.0055513065 -0.076472975 0.33743796
0.0055988319 -0.076206706 0.33746681
0.017697899 -0.012236605 0.33437851
0.017744407 -0.011976025 0.33440676
0.017790917 -0.011715445 0.33443502
0.017837428 -0.011454864 0.33446327
0.017883936 -0.011194284 0.33449152
0.017930446 -0.010933704 0.33451974
0.017976955 -0.010673127 0.334548
0.017954867 -0.010415094 0.3355782
-0.0020439154 -0.11716764 0.34206676
-0.0019954755 -0.11689623 0.34209615
-0.0019470365 -0.11662485 0.34212559
-0.0018985975 -0.11635346 0.34215498
-0.001957682 -0.11630605 0.34316242
-0.0019091433 -0.1160341 0.34319189
-0.0017532813 -0.11553929 0.34224325
-0.0017048423 -0.1152679 0.3422727
-0.0016564033 -0.11499652 0.34230208
-0.0016079643 -0.11472512 0.34233153
-0.0015110862 -0.11418235 0.34239036
-0.0014626482 -0.11391095 0.34241974
-0.0014142091 -0.11363956 0.34244919
-0.0013657692 -0.11336817 0.34247857
-0.0013173302 -0.11309678 0.34250802
-0.0012688921 -0.11282539 0.34253746
-0.0012204531 -0.112554 0.34256685
-0.0010659071 -0.1120666 0.34161741
-0.0010175686 -0.11179577 0.34164676
-0.00096923206 -0.11152495 0.34167612
-0.00092089456 -0.11125413 0.34170547
-0.00087255705 -0.11098331 0.34173483
-0.00071862154 -0.11049931 0.34078494
-0.00067038555 -0.11022906 0.34081423
-0.00062214956 -0.10995881 0.34084353
-0.0005739145 -0.10968856 0.34087282
-0.00042048935 -0.10920741 0.3399227
-0.00037235487 -0.10893773 0.33995193
-0.0003242204 -0.10866804 0.33998117
-0.00017119758 -0.10818917 0.33903077
-0.00012316555 -0.10792006 0.33905995
-2.7100556e-05 -0.10738183 0.3391183
2.0933338e-05 -0.10711271 0.33914745
6.8965368e-05 -0.1068436 0.33917663
0.00022127619 -0.10636871 0.33822584
0.00026920764 -0.10610016 0.33825496
0.00031713909 -0.10583161 0.33828405
0.00036507053 -0.10556307 0.33831316
0.00041300105 -0.10529453 0.33834228
0.0004609325 -0.10502598 0.3383714
0.00050886394 -0.10475743 0.33840051
0.00050126016 -0.10442156 0.33943918
0.00054929312 -0.10415245 0.33946836
0.00059732608 -0.10388333 0.33949754
0.00015328638 -0.10258656 0.34966111
0.00020233449 -0.10231176 0.34969088
0.00025138259 -0.10203695 0.34972069
0.00030043069 -0.10176215 0.34975046
0.0003494788 -0.10148735 0.34978026
0.0003985269 -0.10121255 0.34981003
0.000447575 -0.10093775 0.34983984
0.00044443924 -0.10057683 0.35088122
0.00049358979 -0.10030146 0.35091108
0.00054273847 -0.10002609 0.35094091
0.00059188809 -0.09975072 0.35097077
0.00064103864 -0.099475347 0.35100064
0.00069018826 -0.099199973 0.35103047
0.00073933881 -0.0989246 0.35106033
0.0008890098 -0.098464511 0.35010794
0.0009380579 -0.098189704 0.35013771
0.000987106 -0.097914897 0.35016751
0.0010361541 -0.09764009 0.35019729
0.0010852031 -0.09736529 0.35022709
0.0011342503 -0.09709049 0.35025686
0.0011832993 -0.096815683 0.35028666
0.0012323475 -0.096540876 0.35031644
0.0012813956 -0.096266076 0.35034624
0.0013304437 -0.095991276 0.35037601
0.0014285399 -0.095441662 0.35043561
0.001477588 -0.095166855 0.35046539
0.001526637 -0.094892055 0.35049519
0.0015756842 -0.094617255 0.35052496
0.0015257355 -0.094518632 0.35153791
0.0015748851 -0.094243258 0.35156778
0.0017228294 -0.093792841 0.35061434
0.0017718785 -0.093518041 0.35064411
0.0018209256 -0.093243234 0.35067391
0.0018699747 -0.092968427 0.35070369
0.0018697837 -0.092591025 0.35174689
0.0019189343 -0.092315644 0.35177672
0.0019680839 -0.092040278 0.35180658
0.0020172335 -0.091764905 0.35183641
0.0020663831 -0.091489539 0.35186628
0.0021155328 -0.091214165 0.35189614
0.0021646824 -0.090938784 0.35192597
0.002213832 -0.090663418 0.35195583
0.0022629825 -0.090388037 0.35198569
0.0023121322 -0.090112671 0.35201553
0.0025076019 -0.089395978 0.35109094
0.00255665 -0.08912117 0.35112074
0.002605699 -0.088846363 0.35115051
0.0026547462 -0.088571563 0.35118032
0.0027037952 -0.088296764 0.35121009
0.0027528424 -0.088021956 0.35123989
0.0028018914 -0.087747149 0.35126966
0.0028509405 -0.087472342 0.35129946
0.0028999876 -0.087197542 0.35132927
0.0029490367 -0.086922742 0.35135904
0.0030471329 -0.086373135 0.35141861
0.003096181 -0.086098328 0.35144842
0.0031452291 -0.085823528 0.35147819
0.0031942772 -0.085548721 0.35150799
0.0032433253 -0.085273914 0.35153776
0.0032923734 -0.084999114 0.35156757
0.0033414215 -0.084724307 0.35159734
0.0034858114 -0.08429379 0.35064167
0.003629995 -0.083864421 0.34968594
0.0036788401 -0.083590761 0.34971559
0.0054384125 -0.07865236 0.33722106
0.0054859379 -0.078386091 0.3372499
0.0055334624 -0.078119822 0.33727878
0.0055809878 -0.077853553 0.33730763
0.0056285122 -0.077587284 0.33733651
0.0056760376 -0.077321015 0.33736536
0.005723563 -0.077054746 0.33739424
0.0057710875 -0.076788478 0.33742309
0.0058186119 -0.076522201 0.33745196
0.0058661373 -0.076255932 0.33748081
0.017959492 -0.012284781 0.33439222
0.018006001 -0.012024201 0.33442047
0.018052511 -0.01176362 0.33444872
0.018099021 -0.01150304 0.33447698
0.01814553 -0.01124246 0.33450523
0.01819204 -0.010981879 0.33453345
0.018238548 -0.010721303 0.33456171
0.018217033 -0.010463376 0.33559194
-0.0017714696 -0.11721782 0.34208101
-0.0017230297 -0.11694641 0.34211043
-0.0016745906 -0.11667503 0.34213984
-0.0016261516 -0.11640364 0.34216926
-0.0015777126 -0.11613224 0.34219867
-0.0015292745 -0.11586086 0.34222808
-0.0014808355 -0.11558947 0.3422575
-0.0014323965 -0.11531808 0.34228694
-0.0013839575 -0.11504669 0.34231636
-0.0013355184 -0.1147753 0.34234577
-0.0012386404 -0.11423253 0.3424046
-0.0011902023 -0.11396113 0.34243402
-0.0011417633 -0.11368974 0.34246343
-0.0010933233 -0.11341835 0.34249285
-0.0010448843 -0.11314696 0.34252226
-0.00099644624 -0.11287557 0.34255171
-0.00084236916 -0.11238748 0.3416023
-0.00079403259 -0.11211666 0.34163165
-0.00074569415 -0.11184584 0.34166101
-0.00069735758 -0.11157502 0.34169036
-0.00064902008 -0.1113042 0.34171972
-0.00060068257 -0.11103338 0.34174907
-0.00044731796 -0.11054927 0.34079915
-0.00039908197 -0.11027902 0.34082845
-0.00035084598 -0.11000878 0.34085774
-0.00030261092 -0.10973852 0.34088704
-0.00014975667 -0.10925727 0.33993688
-0.00010162219 -0.10898759 0.33996612
-5.3487718e-05 -0.1087179 0.33999535
9.8963268e-05 -0.10823892 0.33904493
0.0001469953 -0.10796981 0.33907411
0.00024306029 -0.10743158 0.33913246
0.00029109418 -0.10716247 0.3391616
0.00033912621 -0.10689335 0.33919078
0.00049086614 -0.10641835 0.33823997
0.00053879758 -0.1061498 0.33826908
0.00058672903 -0.10588126 0.33829817
0.00063466048 -0.10561272 0.33832729
0.00068259099 -0.10534417 0.33835641
0.00073052244 -0.10507562 0.33838552
0.00077845389 -0.10480708 0.33841464
0.00077142101 -0.10447132 0.33945334
0.00081945397 -0.1042022 0.33948252
0.00086748693 -0.10393309 0.33951169
0.00042915903 -0.10263737 0.34967557
0.00047820713 -0.10236257 0.34970534
0.00052725524 -0.10208776 0.34973514
0.00057630334 -0.10181296 0.34976491
0.00062535144 -0.10153815 0.34979472
0.00067439955 -0.10126335 0.34982449
0.00072344765 -0.10098855 0.34985429
0.00077249669 -0.10071374 0.34988406
0.00072088325 -0.10062775 0.3508957
0.0007700338 -0.10035238 0.35092556
0.00081918249 -0.10007701 0.3509554
0.00086833211 -0.099801637 0.35098526
0.00091748266 -0.099526264 0.35101512
0.00096663227 -0.09925089 0.35104495
0.0010157828 -0.098975517 0.35107481
0.0010649324 -0.098700143 0.35110465
0.0012139305 -0.09824051 0.35015216
0.0012629787 -0.097965702 0.35018197
0.0013120268 -0.097690895 0.35021174
0.0013610758 -0.097416095 0.35024154
0.001410123 -0.097141296 0.35027131
0.001459172 -0.096866488 0.35030112
0.0015082201 -0.096591681 0.35033089
0.0015572682 -0.096316881 0.35036069
0.0016063163 -0.096042082 0.35039046
0.0017044125 -0.095492467 0.35045007
0.0017534606 -0.09521766 0.35047984
0.0018025097 -0.09494286 0.35050964
0.0018515568 -0.094668061 0.35053942
0.0019006059 -0.094393253 0.35056922
0.0019496549 -0.094118446 0.35059899
0.0019987021 -0.093843646 0.35062879
0.0020477511 -0.093568847 0.35065857
0.0020967983 -0.093294039 0.35068837
0.0021458473 -0.093019232 0.35071814
0.0022439444 -0.092469618 0.35077772
0.0022929925 -0.092194818 0.35080752
0.0022445279 -0.092091195 0.35182106
0.0022936775 -0.091815822 0.3518509
0.0023428272 -0.091540456 0.35188076
0.0023919768 -0.091265082 0.35191062
0.0024411264 -0.090989701 0.35194045
0.002490276 -0.090714335 0.35197031
0.0025394266 -0.090438955 0.35200018
0.0025885762 -0.090163589 0.35203001
0.0027834745 -0.089446783 0.35110539
0.0028325226 -0.089171976 0.35113519
0.0028815717 -0.088897169 0.35116497
0.0029306188 -0.088622369 0.35119477
0.0029796679 -0.088347569 0.35122454
0.003028715 -0.088072762 0.35125434
0.0030777641 -0.087797955 0.35128412
0.0031268131 -0.087523147 0.35131392
0.0031758603 -0.087248348 0.35134372
0.0032249093 -0.086973548 0.35137349
0.0033230055 -0.086423941 0.35143307
0.0033720536 -0.086149134 0.35146287
0.0034211017 -0.085874334 0.35149264
0.0034701498 -0.085599527 0.35152245
0.0035191979 -0.08532472 0.35155222
0.003568246 -0.08504992 0.35158202
0.0036172941 -0.084775113 0.35161179
0.0037611132 -0.084344491 0.35065609
0.0039047264 -0.08391501 0.34970033
0.0039535714 -0.08364135 0.34972998
0.0057532438 -0.078435317 0.33726391
0.0058007683 -0.078169048 0.33729279
0.0058482937 -0.077902779 0.33732164
0.0058958181 -0.07763651 0.33735052
0.0059433435 -0.077370241 0.33737937
0.0059908689 -0.077103972 0.33740824
0.0060383934 -0.076837704 0.33743709
0.018128067 -0.012854118 0.33434945
0.018174576 -0.012593541 0.33437771
0.018221086 -0.012332957 0.33440593
0.018267594 -0.012072377 0.33443418
0.018314105 -0.011811797 0.33446243
0.018360615 -0.011551216 0.33449069
0.018407123 -0.011290636 0.33451894
0.018385977 -0.011033957 0.33554906
0.018432587 -0.010772807 0.33557737
0.018479198 -0.010511656 0.33560568
-0.0014990233 -0.117268 0.34209529
-0.0014505833 -0.11699659 0.3421247
-0.0014021443 -0.11672521 0.34215412
-0.0013537053 -0.11645381 0.34218353
-0.0013052663 -0.11618242 0.34221295
-0.0012568282 -0.11591104 0.34224236
-0.0012083892 -0.11563964 0.34227178
-0.0011599502 -0.11536825 0.34230122
-0.0011115111 -0.11509687 0.34233063
-0.0010630721 -0.11482547 0.34236005
-0.00096619409 -0.1142827 0.34241888
-0.000917756 -0.1140113 0.34244829
-0.00086931698 -0.11373992 0.34247771
-0.00082087703 -0.11346852 0.34250712
-0.00077243801 -0.11319713 0.34253654
-0.00061883265 -0.11270837 0.34158719
-0.00057049422 -0.11243755 0.34161654
-0.00052215764 -0.11216673 0.3416459
-0.00047381921 -0.1118959 0.34167525
-0.00042548263 -0.11162509 0.34170461
-0.00022425037 -0.11086949 0.34078407
-0.00017601438 -0.11059923 0.34081337
-0.00012777839 -0.11032899 0.34084266
2.4707057e-05 -0.1098465 0.3398926
7.2841533e-05 -0.10957681 0.33992183
0.00012097601 -0.10930713 0.33995107
0.00016911048 -0.10903745 0.3399803
0.00032109208 -0.10855779 0.33902991
0.00036912505 -0.10828868 0.33905908
0.00041715708 -0.10801957 0.33908826
0.00080838846 -0.10619945 0.33828321
0.00085631991 -0.10593091 0.3383123
0.00070503214 -0.10268817 0.34969002
0.00075408025 -0.10241337 0.34971979
0.00080312835 -0.10213856 0.34974959
0.00085217645 -0.10186376 0.34977937
0.00090122456 -0.10158896 0.34980917
0.00095027266 -0.10131416 0.34983894
0.00099932076 -0.10103936 0.34986874
0.0010483698 -0.10076455 0.34989852
0.0010974179 -0.10048974 0.34992832
0.0010464778 -0.10040329 0.35094005
0.0010956265 -0.10012792 0.35096988
0.0011447761 -0.099852547 0.35099974
0.0011939267 -0.099577174 0.3510296
0.0012430763 -0.0993018 0.35105944
0.0012922268 -0.099026427 0.3510893
0.0013413765 -0.098751053 0.35111913
0.0014898037 -0.098291315 0.35016662
0.0015388518 -0.098016508 0.35019642
0.0015878999 -0.097741701 0.35022619
0.0016369489 -0.097466901 0.350256
0.0016859961 -0.097192101 0.35028577
0.0017350451 -0.096917294 0.35031557
0.0017840932 -0.096642487 0.35034534
0.0018331413 -0.096367687 0.35037515
0.0018821894 -0.096092887 0.35040492
0.0019802856 -0.095543273 0.35046452
0.0020293337 -0.095268466 0.3504943
0.0020783828 -0.094993666 0.3505241
0.0021274299 -0.094718866 0.35055387
0.002176479 -0.094444059 0.35058367
0.002225528 -0.094169252 0.35061345
0.0022745752 -0.093894452 0.35064325
0.0023236242 -0.093619652 0.35067302
0.0023726714 -0.093344845 0.35070282
0.0024217204 -0.093070038 0.35073259
0.0025198176 -0.092520423 0.35079217
0.0025688657 -0.092245623 0.35082197
0.0025209719 -0.092142105 0.35183555
0.0025701215 -0.091866732 0.35186538
0.0026192712 -0.091591366 0.35189524
0.0026684208 -0.091315992 0.3519251
0.0027175704 -0.091040611 0.35195494
0.00276672 -0.090765245 0.3519848
0.0028158706 -0.090489864 0.35201466
0.0028650202 -0.090214498 0.35204449
0.0030593476 -0.089497589 0.35111985
0.0031083957 -0.089222781 0.35114965
0.0031574448 -0.088947974 0.35117942
0.0032064919 -0.088673174 0.35120922
0.003255541 -0.088398375 0.351239
0.0033045881 -0.088123567 0.3512688
0.0033536372 -0.08784876 0.35129857
0.0034026862 -0.087573953 0.35132837
0.0034517334 -0.087299153 0.35135818
0.0035007824 -0.087024353 0.35138795
0.0035988786 -0.086474746 0.35144752
0.0036479267 -0.086199939 0.35147732
0.0036969748 -0.085925139 0.3515071
0.0037460229 -0.085650332 0.3515369
0.003795071 -0.085375525 0.35156667
0.0038441191 -0.085100725 0.35159647
0.0038931672 -0.084825918 0.35162625
0.0040364149 -0.084395193 0.35067052
0.0040853634 -0.084120959 0.35070023
0.0041343099 -0.083846726 0.35072994
0.0060205488 -0.07848455 0.33727792
0.0060680732 -0.078218281 0.3373068
0.0061155986 -0.077952012 0.33733565
0.0061631231 -0.077685744 0.33736452
0.0062106485 -0.077419475 0.33739337
0.0062581738 -0.077153206 0.33742225
0.0063056983 -0.076886937 0.3374511
0.018389661 -0.012902293 0.33436316
0.018436169 -0.012641717 0.33439142
0.01848268 -0.012381133 0.33441964
0.018529188 -0.012120552 0.33444789
0.018575698 -0.011859972 0.33447614
0.018622208 -0.011599392 0.3345044
0.018668717 -0.011338811 0.33453265
0.01864814 -0.011082239 0.3355628
0.018694751 -0.010821088 0.33559111
0.018741362 -0.010559938 0.33561942
-0.0012170305 -0.11763322 0.34107301
-0.001168693 -0.11736241 0.34110236
-0.0011203564 -0.11709158 0.34113172
-0.0010720189 -0.11682077 0.34116107
-0.0010236814 -0.11654994 0.34119043
-0.001081259 -0.11650398 0.34219781
-0.00103282 -0.11623259 0.34222722
-0.00098438188 -0.11596121 0.34225664
-0.00093594287 -0.11568981 0.34228605
-0.00088750385 -0.11541843 0.3423155
-0.00083906483 -0.11514704 0.34234491
-0.00079062581 -0.11487564 0.34237432
-0.00069374777 -0.11433287 0.34243315
-0.00064530969 -0.11406147 0.34246257
-0.00059687067 -0.11379009 0.34249198
-0.00044363225 -0.11330009 0.34154272
-0.00039529474 -0.11302926 0.34157208
-0.00034695817 -0.11275844 0.34160143
-0.00029861974 -0.11248761 0.34163079
-0.00025028316 -0.1122168 0.34166014
-0.00020194473 -0.11194597 0.3416895
-0.00015360815 -0.11167516 0.34171885
4.705321e-05 -0.11091945 0.34079829
9.5289201e-05 -0.1106492 0.34082758
0.00014352519 -0.11037895 0.34085688
0.0002954388 -0.10989635 0.33990678
0.00034357328 -0.10962667 0.33993602
0.00039170776 -0.10935699 0.33996525
0.00043984223 -0.10908731 0.33999449
0.00059125293 -0.10860755 0.33904406
0.00063928589 -0.10833843 0.33907324
0.00068731792 -0.10806932 0.33910242
0.00078338291 -0.10753109 0.33916077
0.00083141681 -0.10726198 0.33918992
0.00087944884 -0.10699286 0.33921909
0.0010300465 -0.10651765 0.33826822
0.0010779779 -0.1062491 0.33829734
0.0011259094 -0.10598056 0.33832642
0.0011738408 -0.10571202 0.33835554
0.0012217714 -0.10544347 0.33838466
0.0012697028 -0.10517492 0.33841377
0.0013176342 -0.10490638 0.33844289
0.0013117436 -0.10457083 0.33948165
0.0013597766 -0.10430171 0.33951083
0.0014078096 -0.1040326 0.33954
0.0014558416 -0.10376349 0.33956915
0.0015038745 -0.10349437 0.33959833
0.0010299534 -0.10246418 0.34973425
0.0010790015 -0.10218937 0.34976405
0.0011770977 -0.10163976 0.34982362
0.0012261458 -0.10136496 0.3498534
0.0012751939 -0.10109016 0.3498832
0.001373291 -0.10054055 0.34994277
0.0014223391 -0.10026574 0.34997255
0.0013720705 -0.10017883 0.35098436
0.0014212201 -0.099903457 0.35101423
0.0014703707 -0.099628083 0.35104409
0.0015195203 -0.09935271 0.35107392
0.0015686709 -0.099077336 0.35110378
0.0017166287 -0.098616928 0.3501513
0.0017656768 -0.098342121 0.35018107
0.0018147249 -0.098067313 0.35021088
0.001912822 -0.097517706 0.35027045
0.0019618692 -0.097242907 0.35030022
0.0024523521 -0.094494864 0.35059813
0.0025014011 -0.094220057 0.3506279
0.0028957152 -0.091642275 0.35190973
0.0029448648 -0.091366902 0.35193959
0.0035314141 -0.08844918 0.35125345
0.0035804613 -0.088174373 0.35128325
0.0040709442 -0.085426331 0.35158113
0.0041199923 -0.085151531 0.35161093
0.0044053425 -0.084289871 0.34969944
0.0044541876 -0.084016204 0.34972912
0.0045030327 -0.083742544 0.34975877
0.0062878542 -0.078533776 0.33729193
0.0063353786 -0.078267507 0.3373208
0.006382904 -0.078001238 0.33734965
0.0064304285 -0.07773497 0.33737853
0.0064779539 -0.077468701 0.33740738
0.0065254793 -0.077202432 0.33743626
0.0065730037 -0.076936163 0.33746511
0.018744273 -0.012429309 0.33443335
0.018790781 -0.012168729 0.3344616
0.018837292 -0.011908148 0.33448985
0.018883802 -0.011647568 0.3345181
0.01893031 -0.011386988 0.33454636
0.018976821 -0.011126407 0.33457458
0.019023329 -0.010865831 0.33460283
0.019003529 -0.010608219 0.33563316
-0.00099349301 -0.11795413 0.3410579
-0.00094515551 -0.1176833 0.34108725
-0.000896818 -0.11741249 0.34111661
-0.00084848143 -0.11714166 0.34114596
-0.00080014393 -0.11687084 0.34117532
-0.00075180642 -0.11660001 0.34120467
-0.00080881361 -0.11655416 0.34221208
-0.00076037459 -0.11628277 0.3422415
-0.0007119365 -0.11601139 0.34227091
-0.00066349749 -0.11573999 0.34230033
-0.00061505847 -0.11546861 0.34232977
-0.00056661945 -0.11519722 0.34235919
-0.00051818043 -0.11492582 0.3423886
-0.00046974141 -0.11465444 0.34241802
-0.00042130239 -0.11438305 0.34244743
-0.00037286431 -0.11411165 0.34247684
-0.00032442529 -0.11384027 0.34250626
-0.00027598534 -0.11356887 0.34253567
-0.00022754632 -0.11329748 0.34256509
-7.5083226e-05 -0.11280852 0.34161568
-2.674479e-05 -0.11253769 0.34164503
2.1591783e-05 -0.11226688 0.34167439
6.9930218e-05 -0.11199605 0.34170374
0.00011826679 -0.11172523 0.3417331
0.00031835632 -0.11096942 0.3408125
0.00036659231 -0.11069917 0.3408418
0.0004148283 -0.11042892 0.3408711
0.00056617102 -0.10994621 0.33992097
0.00061430549 -0.10967652 0.3399502
0.00066243997 -0.10940684 0.33997944
0.00071057444 -0.10913716 0.34000868
0.00086141378 -0.10865729 0.33905822
0.00090944674 -0.10838818 0.3390874
0.00095747877 -0.10811907 0.33911657
0.0010535438 -0.10758084 0.33917493
0.0011015777 -0.10731173 0.33920407
0.0011496097 -0.10704261 0.33923325
0.0012996364 -0.10656729 0.33828235
0.0013475679 -0.10629874 0.33831146
0.0013954993 -0.1060302 0.33834055
0.0014434308 -0.10576166 0.33836967
0.0014913613 -0.10549311 0.33839878
0.0015392927 -0.10522456 0.3384279
0.0015872242 -0.10495602 0.33845702
0.0015819045 -0.10462058 0.33949581
0.0016299374 -0.10435146 0.33952498
0.0016779704 -0.10408235 0.33955416
0.0017260024 -0.10381324 0.33958331
0.0017740354 -0.10354412 0.33961248
0.0018220684 -0.103275 0.33964166
0.0012567774 -0.10278978 0.34971893
0.0013058255 -0.10251498 0.3497487
0.0013548736 -0.10224018 0.3497785
0.0014039217 -0.10196538 0.34980828
0.0014529699 -0.10169057 0.34983808
0.001502018 -0.10141577 0.34986785
0.0015510661 -0.10114097 0.34989765
0.0016001151 -0.10086616 0.34992743
0.0016491632 -0.10059135 0.34995723
0.0016982113 -0.10031655 0.349987
0.0017472594 -0.10004175 0.3500168
0.0016976646 -0.099954367 0.35102871
0.0017468152 -0.099678993 0.35105857
0.0017959648 -0.09940362 0.3510884
0.0018451153 -0.099128246 0.35111827
0.0019925009 -0.098667733 0.35016575
0.002041549 -0.098392926 0.35019553
0.0020905971 -0.098118119 0.35022533
0.0021396452 -0.097843312 0.3502551
0.0021886942 -0.097568512 0.3502849
0.0022377414 -0.097293712 0.35031468
0.0022867904 -0.097018905 0.35034448
