# .PCD v0.7 - Point Cloud Data file format
VERSION 0.7
FIELDS x y z
SIZE 4 4 4
TYPE F F F
COUNT 1 1 1
WIDTH 1247
HEIGHT 1
VIEWPOINT 0 0 0 1 0 0 0
POINTS 1247
DATA ascii
0.0031886122 0.055742819 -0.0066707442
-0.00037304196 0.055640746 -0.0066369264
-0.0013096328 0.055600651 -0.0063203918
0.0012135172 0.055708978 -0.0067426111
-0.00039008516 0.055639878 -0.0066369865
-0.0013035932 0.0556009 -0.0063885925
0.0022032147 0.05575243 -0.0063550281
0.00071282242 0.055687506 -0.0067043225
-0.0011493026 0.055607617 -0.0064046839
-0.0016333177 0.055586446 -0.0065009366
-0.0018532446 0.055577118 -0.0064114821
-0.0014345136 0.055594582 -0.0067246081
0.0016233068 0.055727165 -0.0065441243
-0.007048693 0.054732408 -0.0063803997
-0.0065396358 0.054821026 -0.0065221372
-0.007248099 0.054697223 -0.0065943669
-0.0057166438 0.05496474 -0.0064368984
-0.0054675881 0.055007938 -0.0066907313
-0.0068952907 0.054759219 -0.0063682776
-0.0032627641 0.055392962 -0.0066938945
-0.0065150196 0.054825269 -0.0064948485
-0.0054256069 0.05501556 -0.0065839407
-0.0066962191 0.054793451 -0.0066662529
-0.0029516246 0.055447355 -0.0065856464
-0.009905572 0.053874984 -0.0063576316
-0.011912324 0.05324927 -0.0062923236
-0.009945604 0.053862479 -0.0065506534
-0.010332117 0.05374191 -0.0063629467
-0.0086515816 0.054266319 -0.006248048
-0.0089820912 0.054162912 -0.0064756717
-0.0085698217 0.054291476 -0.0066614021
-0.013463829 0.05256319 -0.0063368515
-0.016606439 0.051114514 -0.0064750956
-0.015095384 0.051810939 -0.0065821507
-0.012590913 0.052965708 -0.0063558216
-0.014254668 0.052198812 -0.006348236
-0.013366857 0.052607939 -0.0063165794
-0.014766222 0.051962998 -0.0062545557
-0.013421386 0.052582871 -0.006342818
-0.013341299 0.052619569 -0.006642248
-0.019515229 0.049298439 -0.0066453274
-0.02008283 0.048941102 -0.0067643807
-0.016861929 0.050967477 -0.0065010772
-0.019065099 0.049581666 -0.006494781
-0.019616019 0.049234938 -0.0064732614
-0.019720368 0.049169503 -0.0065919384
-0.018878158 0.049699135 -0.006405578
-0.017302915 0.050690141 -0.0067411335
-0.01725848 0.050718047 -0.0067062294
-0.017319761 0.050679587 -0.0063551418
-0.017852452 0.050344553 -0.0062782639
-0.021074021 0.048295677 -0.0062585119
-0.023727085 0.046100594 -0.0063831955
-0.022300676 0.047280114 -0.0065406328
-0.022557518 0.047067959 -0.0067138607
-0.023570176 0.046230361 -0.0063814139
-0.023424489 0.046350956 -0.0064785616
-0.023789559 0.046048876 -0.0062887073
-0.02469711 0.045298278 -0.0063663493
-0.023778887 0.046057794 -0.0063147093
-0.023923429 0.045938183 -0.0063456316
-0.023566365 0.046233464 -0.0066630854
-0.028069004 0.041716952 -0.0067150393
-0.027245864 0.042600699 -0.0065997276
-0.025184136 0.044813462 -0.0065048276
-0.026920263 0.04294977 -0.0066615562
-0.025534803 0.04443635 -0.0066427845
-0.027780604 0.042026721 -0.0066465479
-0.02791803 0.041879013 -0.0066836486
-0.0271309 0.042724885 -0.0064587751
-0.026880203 0.04299368 -0.00650308
-0.026825557 0.04305204 -0.0065227388
-0.025516523 0.044455372 -0.0067353309
-0.036785964 0.020875039 -0.0066194492
-0.036962267 0.01888388 -0.0065663359
-0.036823124 0.020455977 -0.0065594912
-0.036691882 0.021937324 -0.0066463398
-0.036055773 0.025310876 -0.0064466922
-0.036587331 0.022954762 -0.0064831981
-0.036419991 0.023696447 -0.0065285135
-0.035926193 0.025884988 -0.006566776
-0.036307104 0.02419683 -0.0065786834
-0.036244448 0.024474701 -0.0063714408
-0.036403142 0.023770945 -0.0065465425
-0.036077581 0.025213778 -0.0067257034
-0.034049656 0.0018975266 -0.0066783768
-0.037058685 0.017419193 -0.0066471254
-0.037002295 0.016137119 -0.0064661335
-0.036877416 0.013296872 -0.0066481591
-0.036907166 0.013973454 -0.006708378
-0.036987007 0.01578992 -0.006564199
-0.036888663 0.013553515 -0.0066144494
-0.037031014 0.016790409 -0.0065735523
-0.036874451 0.013229986 -0.006568545
-0.037024222 0.016634427 -0.0066481167
-0.036456306 0.010374586 -0.0066534826
-0.036176998 0.0087942909 -0.0065974067
-0.036308385 0.0095378999 -0.0065834424
-0.034663297 0.0034556985 -0.0066198609
-0.035867747 0.0072708121 -0.0065772044
-0.034704264 0.003585774 -0.0066729789
-0.035927668 0.0074608042 -0.0065954207
0.018780466 0.054168466 -0.0067465887
0.034645461 0.052435946 -0.0066562956
0.012318443 0.05487413 -0.0067409761
0.015206469 0.054559287 -0.0064617093
0.014274416 0.054660797 -0.0064971624
0.0083370553 0.055308815 -0.0066886996
0.02317841 0.05368802 -0.0067222482
0.014791971 0.054603945 -0.0067062066
0.012655737 0.054837499 -0.0065893717
0.032360002 0.052685533 -0.0065983878
0.031699687 0.052757554 -0.0067223785
0.019793326 0.054057825 -0.0066797733
0.011905297 0.05491937 -0.0065913689
0.032058835 0.052718449 -0.0066144327
0.03391555 0.052515525 -0.0066475859
0.02120899 0.053903468 -0.0065136841
0.0080166254 0.055344015 -0.0065757083
0.010004936 0.055127297 -0.0065002502
0.021472655 0.053874534 -0.0066748732
0.007708163 0.055377617 -0.0067374934
0.017445091 0.054314595 -0.0064799539
0.0091648437 0.055218782 -0.0065624272
0.030771939 0.052858979 -0.0066254339
0.010213986 0.055103794 -0.0067349398
0.018095432 0.054243483 -0.0065372228
0.0083424933 0.055308633 -0.0065532844
0.020644892 0.053964864 -0.0066370652
0.026206708 0.053357642 -0.0065626283
0.017289326 0.054331653 -0.0065283831
0.041144796 0.051361017 -0.0066991979
0.030527292 0.0016107692 -0.0073552714
0.03047327 0.0019919137 -0.0071807341
0.030612387 0.0026125219 -0.0072882636
0.030589087 0.0024150633 -0.0072901952
0.030322265 0.00058329373 -0.0073712203
0.029415911 -0.0014602798 -0.0071929707
0.028887352 -0.0024731213 -0.0072990977
0.026676433 -0.0051258747 -0.0071918587
0.028545279 -0.0031009126 -0.0073813717
0.026288904 -0.005730994 -0.0073602037
0.027187768 -0.0045270803 -0.0071933963
0.025930056 -0.0060677836 -0.0072654127
0.024242282 -0.0077144895 -0.0073397583
0.025211841 -0.0068545737 -0.0073473784
0.024935929 -0.0069924118 -0.0072074826
0.025397997 -0.0065813158 -0.0072094477
0.022769351 -0.0089514647 -0.0072386493
0.018713305 -0.011864454 -0.0073384629
0.019708894 -0.01119242 -0.0073353001
0.01112622 -0.014990008 -0.0071783955
0.012734389 -0.014562291 -0.0073490008
0.013922891 -0.014114234 -0.0072584976
0.014649265 -0.013818077 -0.0072246497
0.016657274 -0.01282186 -0.0072062542
0.016436517 -0.012945808 -0.0072307917
0.015842237 -0.013290402 -0.0073133814
0.0066462322 -0.016070485 -0.0073587955
0.0070917476 -0.015885919 -0.007185115
0.0099360384 -0.015464208 -0.0073620533
0.0047163321 -0.016291086 -0.0073562027
0.0033511203 -0.016231922 -0.0071442681
0.0021466422 -0.016308252 -0.0071798596
0.013550445 0.04768661 -0.007075435
0.013536841 0.047854345 -0.007340577
0.01225258 0.048327927 -0.0073204353
0.01299807 0.047869429 -0.0070331204
0.012204017 0.048033055 -0.0068102996
0.014006089 0.047649004 -0.0072951554
0.014286068 0.04757826 -0.0073523265
0.013791691 0.047685463 -0.007222286
0.012791246 0.048167381 -0.0073910221
0.0085811308 0.04895483 -0.0067656892
0.011300961 0.04835606 -0.0068079173
0.010730605 0.048565708 -0.0069415257
0.009086065 0.048932895 -0.0069250599
0.01084993 0.048568171 -0.0069925147
0.010975989 0.048682835 -0.0072360695
0.011341604 0.048567295 -0.0071822652
0.0079066502 0.049079802 -0.0067153107
0.0096725114 0.048915204 -0.0071230265
0.0094807437 0.049176946 -0.0074929525
0.0080338959 0.049224865 -0.0070112715
0.0080320109 0.04935598 -0.0072332728
0.0097593954 0.048937682 -0.0071953046
0.0071034916 0.049398266 -0.0069434228
0.009074837 0.049158849 -0.0073041585
0.0073735821 0.049261793 -0.0068169902
0.0086915344 0.049194396 -0.0072153215
0.003867602 0.04962571 -0.0068252687
0.0060608266 0.04955177 -0.0070370412
0.0066127903 0.049400847 -0.0068606655
0.0052449126 0.049575575 -0.0069519789
0.0052272435 0.049660593 -0.0070967698
0.0059079044 0.049459543 -0.0068530538
0.0052423822 0.049460445 -0.0067515899
0.0047376323 0.049504243 -0.0067495783
0.0054211859 0.049553413 -0.0069406782
0.0047140103 0.04977363 -0.0072132288
0.0043346225 0.049782634 -0.0071698497
0.0032255244 0.049927924 -0.0072502713
0.0056032203 0.049754567 -0.0073181377
0.0035882576 0.049890738 -0.0072421166
0.0035602897 0.049996335 -0.0074210609
0.004890169 0.049865659 -0.007400312
0.0060818344 0.049813658 -0.0074950014
0.0064707887 0.049766358 -0.0074731768
0.013231572 0.047553968 -0.0066630943
0.014205929 0.047370251 -0.0069641969
0.013723003 0.047619242 -0.0070724986
0.015088605 0.047210608 -0.0072478582
0.013988724 0.047261741 -0.0066537969
0.014553216 0.047184803 -0.006876267
0.014359146 0.047344748 -0.0070171761
0.015282029 0.047024485 -0.0070640114
0.016977359 0.046352562 -0.0073472424
0.017443186 0.04595916 -0.0071325642
0.015655989 0.04663296 -0.0066781836
0.016983639 0.046359528 -0.007362897
0.016841374 0.046320919 -0.0071856542
0.016857306 0.046203908 -0.0070200176
0.016416151 0.046610985 -0.0072759003
0.015993521 0.046550069 -0.0068317833
0.01749469 0.045870218 -0.0070393798
0.016632609 0.046082281 -0.0066477708
0.017405001 0.045852154 -0.0069372836
0.019017668 0.04504665 -0.0070456318
0.019301487 0.045085497 -0.007340685
0.018899504 0.045070909 -0.0069844476
0.01773309 0.045497898 -0.0066682012
0.017445801 0.045862455 -0.0069867377
0.018850571 0.044995748 -0.0068290276
0.019311095 0.04509218 -0.0073587303
0.022227349 0.042949829 -0.0072525847
0.022264143 0.042914186 -0.0072406079
0.02281623 0.042604364 -0.0073755407
0.019807253 0.04480559 -0.0073587024
0.0227791 0.042698979 -0.0074694897
0.020609735 0.044146962 -0.0072626802
0.020551903 0.044103753 -0.0071427454
0.021305034 0.043568119 -0.0071682385
0.019938739 0.044442158 -0.0069850362
0.021508168 0.043109637 -0.0067351782
0.021493608 0.043255921 -0.0069252304
0.021694843 0.042984586 -0.0067524039
0.022461034 0.042769857 -0.0072410838
0.022204543 0.042541053 -0.0066564279
0.023056433 0.042245369 -0.0071199494
0.022411661 0.042456534 -0.0067515313
0.021670841 0.042929251 -0.0066503799
0.023814788 0.041510619 -0.0070558111
0.02472192 0.040788773 -0.0072533633
0.023988562 0.041239757 -0.0069282348
0.023961913 0.041383382 -0.007075178
0.024809331 0.04057182 -0.0070883264
0.025054824 0.040550452 -0.007358911
0.024208555 0.041003816 -0.0069001312
0.024230743 0.041147374 -0.0071061612
0.025887385 0.039704427 -0.0073111425
0.024847109 0.040234346 -0.0067130602
0.025881428 0.039563391 -0.0071278601
0.023710428 0.041324854 -0.0066977004
0.025923502 0.039349388 -0.0069117281
0.026352661 0.039043382 -0.0070492462
0.025469653 0.039756272 -0.0068701305
0.026548645 0.039136387 -0.0074028051
0.025816675 0.039530441 -0.0070081945
0.027936906 0.037178259 -0.0071759061
0.026798889 0.038510319 -0.007045208
0.026705671 0.038935851 -0.0073734703
0.026858134 0.038193598 -0.0067870007
0.02794295 0.03718137 -0.00718742
0.027281433 0.037887771 -0.0070389374
0.027671874 0.037390068 -0.0070399852
0.026738524 0.038765412 -0.0072359755
0.027737841 0.037088815 -0.0068075242
0.027717398 0.037281029 -0.0069855074
0.028106986 0.036744133 -0.006943488
0.028340505 0.036456574 -0.0069550374
-0.011994547 -0.013188385 -0.0070118974
-0.016156239 -0.010843072 -0.0069427309
-0.014795897 -0.011685587 -0.0070257238
-0.014392197 -0.0119789 -0.007129584
-0.012770889 -0.012795773 -0.0069993711
-0.01350247 -0.01254043 -0.0072404458
-0.012782025 -0.012774547 -0.0069751772
-0.012328256 -0.013063113 -0.0070349895
-0.014843136 -0.011813637 -0.0072655198
-0.012432044 -0.013156489 -0.0072777919
-0.01367215 -0.012353333 -0.0070904107
-0.012425426 -0.013104958 -0.0071890396
-0.019885173 -0.0081541445 -0.0071176901
-0.018772271 -0.0090007838 -0.007084589
-0.018795777 -0.0089947563 -0.0071002324
-0.018145477 -0.0096359802 -0.0073223445
-0.017250035 -0.010027642 -0.0069017378
-0.017921453 -0.00973476 -0.0072182645
-0.018191753 -0.0095765144 -0.0072853151
-0.017111322 -0.010198407 -0.0070014405
-0.016843442 -0.0106356 -0.0073545356
-0.017520251 -0.0098255742 -0.0069031031
-0.018004213 -0.0094989985 -0.0069584032
-0.019173844 -0.0088118482 -0.0072450512
-0.021988401 -0.0058522858 -0.0068604317
-0.022744464 -0.0053124297 -0.0071316906
-0.022584284 -0.005462009 -0.0071122958
-0.020598959 -0.0074873772 -0.0071480465
-0.021627432 -0.0064969407 -0.0071911798
-0.022513436 -0.0056474865 -0.0072331107
-0.02187106 -0.0062954561 -0.0072459611
-0.021191834 -0.0067842947 -0.0069945599
-0.021772554 -0.0065085683 -0.0074012796
-0.020607958 -0.0076289275 -0.0073510236
-0.020446219 -0.0077716652 -0.0073269759
-0.027230134 0.0016434274 -0.0067222021
-0.027847247 0.0023498 -0.0070560896
-0.027789323 0.001837819 -0.0073298677
-0.027092988 0.0013628877 -0.0067326804
-0.027263729 0.0017569411 -0.0066890302
-0.02721644 0.0016193676 -0.0067206076
-0.02789758 0.002140888 -0.0072658644
-0.02765042 0.0025027953 -0.0066907597
-0.029799806 0.0080183726 -0.0067157508
-0.029567897 0.00595129 -0.0073954188
-0.02975994 0.0066711782 -0.0073682037
-0.029923189 0.0075110132 -0.007222095
-0.029542549 0.0058200946 -0.0074184923
-0.02979243 0.0077179559 -0.0068640155
-0.029785812 0.0074907658 -0.0069743772
-0.02930674 0.0058418633 -0.007073401
-0.029539324 0.0071922173 -0.0067429547
-0.029474692 0.006920693 -0.0067844954
-0.029451689 0.0071241632 -0.0066534732
-0.029397413 0.0066783121 -0.0067940601
-0.029120972 0.0058143642 -0.0068268538
-0.029420361 0.0057832338 -0.0072607906
-0.028819254 0.0051504141 -0.0067272624
-0.029069368 0.0055237976 -0.006895809
-0.029026704 0.0059407987 -0.0066336207
-0.028494323 0.0040278388 -0.0068619023
-0.029392153 0.0054809414 -0.0073774871
-0.028172249 0.0025618817 -0.0074036564
-0.029420421 0.0055131325 -0.0074041593
-0.028539268 0.0035505367 -0.0073107653
-0.028950743 0.0046005538 -0.0072516543
-0.028830428 0.0045215846 -0.007093539
-0.030463729 0.011203134 -0.0067263562
-0.030486016 0.011575833 -0.0066522858
-0.030462801 0.010943882 -0.0067995754
-0.030592863 0.011865146 -0.0067277229
-0.030392569 0.010474415 -0.0068303454
-0.030555505 0.011909635 -0.0066594384
-0.030073471 0.0094788242 -0.0066427845
-0.030326037 0.010108219 -0.0068368991
-0.03032738 0.0090931756 -0.0071309763
-0.030612182 0.0099166138 -0.0073170415
-0.030755345 0.023031926 -0.0073759523
-0.029844826 0.026114298 -0.0070444369
-0.030032245 0.025035398 -0.0069008875
-0.030191485 0.024726765 -0.0070686867
-0.030536734 0.02352831 -0.0071801613
-0.029838858 0.026011989 -0.0069840536
-0.030793972 0.022804612 -0.0073438385
-0.030123226 0.025703546 -0.0073992093
-0.030458014 0.022840701 -0.0068196678
-0.030064357 0.024453763 -0.006726664
-0.030821865 0.022682363 -0.0073451134
-0.030649653 0.022442253 -0.0069925957
-0.030615296 0.02312785 -0.0071640084
-0.030168567 0.02437539 -0.006866192
-0.030517496 0.022388654 -0.0067650746
-0.030639213 0.022286011 -0.0069244108
-0.027094904 0.032326348 -0.0067351609
-0.0270402 0.032341894 -0.0066692713
-0.027290443 0.032160927 -0.006897056
-0.028197479 0.030225152 -0.0068657347
-0.027749356 0.031222772 -0.0069087441
-0.028385175 0.029872058 -0.0068910089
-0.028137039 0.030666092 -0.0070765666
-0.027852839 0.031452637 -0.0072069732
-0.028878167 0.028996868 -0.0071646436
-0.028380359 0.030035043 -0.0070005856
-0.0286607 0.029301379 -0.0069771451
-0.028877543 0.028805479 -0.0070145871
-0.029258663 0.028155234 -0.0072524068
-0.029221876 0.028306955 -0.007298633
-0.029230477 0.02834294 -0.0073434026
-0.029364135 0.028020149 -0.0073531107
-0.028970575 0.029148716 -0.0074626249
-0.028854841 0.02832783 -0.0066844821
-0.029328326 0.027249489 -0.0068453127
-0.02943366 0.027426196 -0.0070894868
-0.029566731 0.026273239 -0.0067095035
-0.029546304 0.02699093 -0.0070382855
-0.029780304 0.026452787 -0.0071151876
-0.029689087 0.025869442 -0.0066884784
-0.029486643 0.026439931 -0.0066743917
-0.026821641 0.03313946 -0.0070370012
-0.026995106 0.032770433 -0.0069667413
-0.027493324 0.032095186 -0.007165411
-0.027264601 0.032550704 -0.0072258017
-0.026100738 0.034813855 -0.0074746502
-0.026960712 0.032817792 -0.0069537959
-0.026170004 0.034567527 -0.0073439036
-0.026667897 0.033788279 -0.0074338331
-0.026931085 0.032661449 -0.0067376015
-0.020203782 0.041321624 -0.0070190891
-0.021086542 0.040373508 -0.0068419869
-0.01980143 0.041791905 -0.0071446509
-0.020246912 0.041425671 -0.0071872366
-0.020436393 0.040968515 -0.0068508261
-0.020300006 0.041249223 -0.0070362366
-0.021616679 0.039772902 -0.0066987709
-0.019972244 0.041756667 -0.0072847367
-0.019336171 0.04192045 -0.0068008783
-0.02207402 0.039480668 -0.006905545
-0.020077012 0.041792244 -0.0074767978
-0.022392608 0.039372444 -0.0071866387
-0.020051776 0.041814502 -0.0074741603
-0.020154396 0.041631307 -0.0073528406
-0.021729462 0.04010107 -0.0073206224
-0.020752216 0.040854156 -0.0070599592
-0.022482879 0.039496697 -0.0074874884
-0.0209671 0.040919393 -0.0074470392
-0.016985454 0.043844122 -0.0069792396
-0.014807519 0.045155816 -0.0067515927
-0.015610308 0.044719711 -0.0068985787
-0.015532985 0.044652164 -0.0067385621
-0.0171366 0.043694444 -0.0069171111
-0.016806006 0.043815501 -0.0067785489
-0.016115271 0.044303603 -0.0068022883
-0.016258713 0.04424955 -0.0068605631
-0.015303974 0.0451288 -0.0071659847
-0.018653063 0.042825762 -0.0072364244
-0.017603988 0.043497425 -0.0071123545
-0.018531321 0.042824421 -0.0070969607
-0.018610032 0.042972326 -0.0074192998
-0.018087761 0.043365445 -0.00745031
-0.018985869 0.042744122 -0.007483576
-0.016254194 0.044694997 -0.0074791699
-0.016949929 0.044051338 -0.0072484375
-0.017862454 0.043355528 -0.0071800691
-0.011301023 0.04712081 -0.0070629944
-0.013268789 0.045881696 -0.006675533
-0.012358068 0.046577688 -0.0070351479
-0.011916691 0.047008909 -0.0073472909
-0.011254018 0.04715386 -0.0070776944
-0.011616978 0.046742991 -0.006738022
-0.013887341 0.045656335 -0.0067949989
-0.013093713 0.046070542 -0.0068256608
-0.011985882 0.046989765 -0.0073745945
-0.013114401 0.046477951 -0.007498574
-0.013362598 0.046158068 -0.0071744961
-0.013740068 0.04605227 -0.0073268744
-0.013428391 0.046261191 -0.00740693
-0.014370453 0.04552963 -0.0069950572
-0.014286824 0.045597114 -0.0070358128
-0.013945569 0.045731265 -0.0069634966
-0.012359641 0.046791844 -0.0073677101
-0.0095376438 0.047862411 -0.0071990895
-0.0087871859 0.048210941 -0.0073525566
-0.0094881132 0.04794655 -0.0073172008
-0.0083574532 0.048317231 -0.0072754729
-0.0097561451 0.04794237 -0.0074751689
-0.010566523 0.047263823 -0.0067754169
-0.010523984 0.047647279 -0.007426918
-0.010295471 0.047393247 -0.0068371505
-0.010626346 0.047370441 -0.0070006731
-0.026382687 0.033692025 -0.0068486831
-0.025379965 0.035268098 -0.0068552974
-0.025154455 0.035581619 -0.0068220445
-0.025617374 0.034770526 -0.0067482064
-0.025473475 0.035606239 -0.0072664176
-0.025244018 0.035732716 -0.0070691821
-0.02513987 0.035599817 -0.0068181041
-0.025280384 0.035574395 -0.006983032
-0.025064602 0.036130603 -0.0072658188
-0.0240377 0.037276335 -0.0070622773
-0.023315042 0.038443416 -0.0073649655
-0.024769971 0.036313515 -0.0070270174
-0.024460284 0.036567293 -0.0068521849
-0.023444729 0.038371693 -0.0074809655
-0.025424648 0.035819203 -0.0074488218
-0.024516027 0.036433373 -0.0067745647
-0.024186691 0.037023365 -0.0069844774
-0.023474641 0.037645292 -0.0067347144
-0.022547571 0.039088521 -0.0070762769
-0.022826659 0.038844038 -0.0071648653
-0.022409795 0.039033424 -0.0068553616
-0.022912843 0.038886301 -0.0073110773
-0.022359837 0.039019894 -0.0067816959
-0.022266785 0.039244875 -0.0068965475
-0.023212245 0.037922285 -0.0066988375
-0.022902006 0.038762614 -0.0071733356
-0.026906416 0.00060684397 -0.0070252498
-0.02739956 0.0012097169 -0.0072703925
-0.027210804 0.00074884883 -0.0073961155
-0.027480915 0.0012961455 -0.0073232525
-0.026570858 2.986053e-05 -0.007017259
-0.026081176 -0.00070302223 -0.0069018849
-0.026678253 8.9761219e-05 -0.0071387854
-0.026245687 -0.00088832108 -0.0073520304
-0.025959183 -0.0010088524 -0.0070128688
-0.024721965 -0.0025608125 -0.0068495362
-0.025560552 -0.0015820994 -0.0070259743
-0.025655558 -0.001366617 -0.0069520441
-0.025023168 -0.0023981207 -0.0070822746
-0.025378088 -0.001983793 -0.007156828
-0.02495826 -0.002523439 -0.0071194205
-0.023426395 -0.0044820714 -0.007054633
-0.02475928 -0.0027326932 -0.007058199
-0.024461979 -0.0033179941 -0.0072856103
-0.023583731 -0.0042889141 -0.0070705316
-0.024456862 -0.0034292168 -0.0074080224
-0.023732426 -0.0038522137 -0.0067882831
-0.023611238 -0.0043819034 -0.0072217467
-0.023544081 -0.0043056076 -0.0070292209
-0.0067445152 0.048539914 -0.0067640808
-0.0079118861 0.048107725 -0.0066971453
-0.0065288157 0.048612379 -0.0067644217
-0.0067426106 0.04855188 -0.0067816065
-0.0074221781 0.04843701 -0.0069590514
-0.0077424282 0.048500739 -0.0072289971
-0.0071103717 0.048718963 -0.0072403415
-0.0080294302 0.048316438 -0.0070894812
-0.0088913357 0.047999818 -0.0070438324
-0.0048527522 0.049157161 -0.0071285167
-0.0061878697 0.048834488 -0.0070175682
-0.0063192216 0.049044445 -0.0074395542
-0.0050764224 0.049271367 -0.0074113258
-0.0050796936 0.049231887 -0.0073415688
-0.0051562861 0.049190313 -0.0072944048
-0.0045683226 0.049178634 -0.0070675551
-0.0038218582 0.049557354 -0.0074852644
-0.0053189863 0.049024083 -0.0070533496
-0.0023940431 0.049585048 -0.0070628743
-0.0052967127 0.048910119 -0.0068430672
-0.0033081577 0.049271129 -0.0068242303
-0.0062038824 0.048638552 -0.0066728722
-0.0046137739 0.048985347 -0.0067551495
-0.0020967454 0.049660958 -0.0070967865
-0.0048832903 0.049028262 -0.0069111795
-0.0021905315 0.049523987 -0.0068970709
-0.0026391882 0.049696326 -0.0073258695
0.00020784768 0.049812865 -0.0071501364
-0.0010780909 0.049717538 -0.00709503
0.00063231494 0.050031554 -0.0075019873
-0.0019916093 0.049786292 -0.0072991052
0.00061364379 0.049927298 -0.0073176422
-3.5246601e-05 0.049796578 -0.0071427641
-0.0010238718 0.049573597 -0.0068335435
0.00090429978 0.049998648 -0.0074186935
-0.0017195297 0.049500581 -0.0067656827
0.0015923327 0.049829356 -0.0070613525
0.0025339311 0.05001922 -0.0073137595
0.0021459723 0.049882151 -0.0071073822
0.0021551335 0.049889244 -0.0071189343
-0.0011031872 0.049478665 -0.0066746394
0.00032180268 0.049760368 -0.0070469589
0.0016261536 0.049826805 -0.0070545082
0.00049179816 0.049769174 -0.0070478707
-0.0082714763 -0.01470858 -0.0071193851
-0.010924656 -0.013790653 -0.0072949645
-0.0087572001 -0.014538755 -0.0071486593
-0.0095282057 -0.014283093 -0.0072183204
-0.0066622263 -0.015139911 -0.0071142479
-0.0036740815 -0.015945189 -0.0072967694
-0.0073690512 -0.015097381 -0.0073230877
-0.0064721135 -0.015316132 -0.0073389546
-0.0064728772 -0.015186924 -0.0071169422
-0.0047744131 -0.015560311 -0.0070767165
-0.0070827832 -0.015199131 -0.007383008
2.3029046e-05 -0.016266666 -0.0072081168
0.00070674787 -0.016401885 -0.0073336414
-0.0021526734 -0.016048262 -0.0071735256
-0.00076758571 -0.016232988 -0.0072741802
-7.4037351e-05 -0.016331444 -0.0073348093
0.00022012991 -0.016286027 -0.0072104088
-0.0022203536 -0.016053123 -0.0071926904
-0.030833106 0.011628516 -0.0072096479
-0.030710539 0.012315881 -0.0067793648
-0.030750277 0.011976967 -0.0069531589
-0.031146111 0.013188167 -0.00732745
-0.030759463 0.010674935 -0.0073553422
-0.030677833 0.010698447 -0.0071974457
-0.030890223 0.011830867 -0.0072554019
-0.030736016 0.012786759 -0.0066872984
-0.031309217 0.014622437 -0.0074519203
-0.031182135 0.014269592 -0.0072732964
-0.031307608 0.014739725 -0.0074424664
-0.031196633 0.014347914 -0.0072914953
-0.031252746 0.014526335 -0.0073690689
-0.030832481 0.013463064 -0.0067721209
-0.031052114 0.013792165 -0.0070974226
-0.031042406 0.013714267 -0.0070868027
-0.031171462 0.017272102 -0.0070436005
-0.031169889 0.01688952 -0.0070733246
-0.030949373 0.016579559 -0.0067165722
-0.030922189 0.014812977 -0.0068192282
-0.0309803 0.016874647 -0.0067452923
-0.031254869 0.016563265 -0.0072486647
-0.031276319 0.017211558 -0.007230869
-0.030864017 0.016023498 -0.0066155209
-0.0309294 0.015963512 -0.0067342091
-0.031193072 0.01931618 -0.0073476913
-0.031118292 0.020342076 -0.0073856073
-0.03102948 0.018917384 -0.0069991485
-0.031104378 0.020084256 -0.0073194071
-0.031060414 0.018171942 -0.0069310456
-0.031121919 0.020763716 -0.0074607409
-0.031255316 0.018813806 -0.0073735141
-0.030953217 0.0180337 -0.0067228787
-0.031201059 0.01988795 -0.0074548065
-0.030925205 0.021143595 -0.0071721864
-0.030959811 0.020900566 -0.007199978
-0.030907189 0.019725081 -0.006908624
-0.030954618 0.019209875 -0.0069173002
-0.030818086 0.021657534 -0.0070479061
-0.030892503 0.021178778 -0.0071147117
-0.030871997 0.021512378 -0.0071287672
0.035298076 0.026931981 -0.00726328
0.035204772 0.022602187 -0.0070225759
0.035201497 0.022450676 -0.0070737223
0.035178568 0.021383755 -0.0070986063
0.035160281 0.020527011 -0.0072109052
0.035227586 0.023652961 -0.0073912791
0.035252027 0.024795594 -0.0072324197
0.035163473 0.020685708 -0.0069723572
0.035219226 0.023260562 -0.0073905247
0.035204835 0.02260522 -0.0070763924
0.035288699 0.026503548 -0.0072199698
0.035215355 0.023099203 -0.0069909659
0.035184287 0.021650979 -0.0070490898
0.035270184 0.025630381 -0.0073797894
0.035141587 0.019659875 -0.007145802
0.035216626 0.023144767 -0.0073519996
0.034839395 0.0056160353 -0.0075554713
0.035120789 0.018683922 -0.0074316342
0.034914374 0.0091037722 -0.0074393018
0.034922574 0.0094833756 -0.0072881947
0.034935609 0.010087555 -0.007460847
0.034915108 0.0091364309 -0.0074222484
0.035114214 0.01838691 -0.0073521747
0.035067141 0.016202101 -0.0072033037
0.035132263 0.019218633 -0.0073921452
0.03525205 0.024783209 -0.0076203565
0.034927897 0.0097327773 -0.0071442896
0.034884244 0.0077057872 -0.0073634465
0.034860179 0.0065848785 -0.0074336496
0.035108421 0.018117609 -0.0072037089
0.035062242 0.015974276 -0.0070777074
0.034862556 0.0066963555 -0.0073511465
0.034864642 0.0067946408 -0.0072743692
0.034915052 0.0091337888 -0.0073558963
0.035015844 0.013814038 -0.0075166165
0.034853373 0.0062677017 -0.0076029203
0.035215825 0.023100436 -0.0074844207
0.034960058 0.011220081 -0.0075916168
0.035196789 0.02221431 -0.0074374867
0.034849834 0.0061074933 -0.0074209715
0.034959577 0.011207206 -0.0071477885
0.035191327 0.021959729 -0.0074406988
0.034836903 0.0055075781 -0.0075501199
0.034971237 0.011742256 -0.0074199527
0.035092544 0.017379241 -0.007084073
0.034849256 0.0060754791 -0.0076381085
0.03502186 0.014095472 -0.0072031277
0.035193097 0.022041364 -0.0075949389
0.034995601 0.012875237 -0.0075163809
0.035009816 0.013538627 -0.0070685721
0.035245024 0.024457816 -0.0075235539
0.035047907 0.015303238 -0.0074606626
0.035259321 0.025116455 -0.0076609743
0.034881618 0.00757825 -0.0075927847
0.035222583 0.023411224 -0.0076253614
0.034972563 0.011810839 -0.007072655
0.035012882 0.013675931 -0.0074662217
0.034848683 0.0060533001 -0.0073229871
0.034914728 0.009117851 -0.0073781316
0.035018921 0.013960648 -0.0072837775
-0.014602909 0.045134068 -0.0064041968
-0.013230009 0.045814462 -0.0063810581
-0.013622565 0.045620296 -0.006311228
-0.014934521 0.044918384 -0.0064008934
-0.017360283 0.043266799 -0.006307032
-0.020277433 0.040854838 -0.00639894
-0.028124217 0.029882677 -0.0063796993
-0.028048962 0.030039998 -0.0063788122
-0.024291253 0.036482263 -0.0063945255
-0.0230563 0.037955999 -0.0063325288
-0.022237308 0.038932402 -0.0063934308
-0.025618805 0.034523189 -0.0063749007
-0.025075523 0.035374507 -0.0063528055
-0.008231963 0.047905695 -0.0064044516
-0.007433855 0.048172731 -0.0063560498
-0.0086198263 0.047776133 -0.0063671097
-0.0056107603 0.048672929 -0.0063640485
0.024450323 -0.01485038 -0.00741988
0.023994468 -0.015267782 -0.0075791837
0.024117073 -0.015299151 -0.0075063291
0.031305492 0.040464368 -0.0077126264
0.031675227 0.032919098 -0.0076977634
0.031248085 0.040459432 -0.0077126143
0.031161562 0.039020758 -0.0077099032
0.031563371 0.040538665 -0.0077126375
0.03089121 0.036470514 -0.0077050119
0.031492833 0.033397894 -0.0076987506
0.030085314 0.041300017 -0.007714883
0.031003574 0.038493559 -0.0077089216
0.030857157 0.036852878 -0.0077058175
0.030108903 0.04160928 -0.0077154501
0.031673264 0.034593765 -0.0077010044
0.030642968 0.036746759 -0.007705715
0.03114881 0.041274007 -0.007714285
0.03167098 0.033804666 -0.0076995022
0.032005806 0.038971588 -0.0077093556
0.030370526 0.038399473 -0.0077090901
0.030939838 0.038980704 -0.0077099637
0.029899845 0.04287063 -0.0077180662
0.031037763 0.036949258 -0.0077059208
0.031597186 0.039939739 -0.0077114427
0.031502023 0.034466732 -0.007700833
0.030633401 0.037493717 -0.0077072526
0.031384543 0.038327493 -0.0077084
0.032011669 0.036556248 -0.0077046794
0.030825466 0.037556577 -0.0077071884
0.030467896 0.039493658 -0.0077111679
0.031390943 0.039382838 -0.0077105411
0.032219462 0.039398465 -0.0077101164
0.030476339 0.041975129 -0.0077160462
0.031549301 0.03345101 -0.0076988651
0.031867422 0.035865907 -0.0077033904
0.03025296 0.040126361 -0.0077124867
0.031102847 0.0368242 -0.0077055977
0.031676661 0.033449553 -0.007698745
0.030371053 0.041717935 -0.0077155349
0.030390715 0.040207088 -0.0077125602
0.030534737 0.038992833 -0.0077101304
0.032162838 0.038046815 -0.0077074762
0.029935891 0.041360836 -0.0077151074
0.031742264 0.039962903 -0.0077114222
0.031456657 0.035468657 -0.007702772
0.030991098 0.038614146 -0.0077091767
0.031393599 0.041233975 -0.0077141146
0.031658009 0.040306304 -0.0077121644
0.031217083 0.037825037 -0.0077076121
0.03009961 0.041224472 -0.0077147069
0.031051386 0.041842401 -0.0077154669
0.031094495 0.034331996 -0.007700766
0.031332575 0.033931468 -0.0076999064
0.03007148 0.040442932 -0.0077131963
0.031583883 0.038696349 -0.0077090668
0.031152489 0.03880671 -0.0077094813
0.031855728 0.037997823 -0.0077075749
0.032024551 0.036907163 -0.0077053043
0.03171834 0.034837451 -0.0077013955
0.030834144 0.037310641 -0.0077067302
0.029908126 0.042382985 -0.0077171619
0.032488976 0.039852705 -0.0077108634
0.029728085 0.043143112 -0.0077186539
0.031671491 0.033143595 -0.0076981499
0.029782787 0.041779835 -0.0077159437
0.031705346 0.031779662 -0.0076955357
0.031904936 0.03349293 -0.0076988512
0.031716939 0.030557839 -0.0076933657
0.031654097 0.031573523 -0.0076952274
0.031748187 0.032236643 -0.0076964204
0.031782392 0.031283963 -0.0076947468
0.031607118 0.031134093 -0.0076943669
0.031883445 0.032614626 -0.0076972977
0.030527243 -0.00058093993 -0.0076347864
0.029870437 -0.0031489399 -0.0076303831
0.030338934 -0.0013473916 -0.0076334267
0.02973908 -0.0034343593 -0.0076299007
0.030812303 0.00062200986 -0.0076368521
0.029626295 -0.0039629955 -0.007629043
0.060228936 0.024099045 -0.0076612965
0.06086028 0.027164456 -0.007666498
0.060355097 0.022489481 -0.0076581505
0.06045695 0.023444878 -0.0076598055
0.060550157 0.024875881 -0.0076625007
0.060498085 0.026315279 -0.0076652993
0.060234703 0.024783002 -0.0076626358
0.060772654 0.026329018 -0.0076649957
0.060577162 0.022871263 -0.007658537
0.060988095 0.030282633 -0.0076724342
0.060211077 0.023785999 -0.007660802
0.060657002 0.024225418 -0.007661086
0.061015226 0.02983208 -0.007671461
0.061079241 0.03175839 -0.0076751602
0.030984001 0.03349847 -0.0076993383
0.030850006 0.03498511 -0.0077021928
0.03086463 0.034181442 -0.0077006766
0.030115979 0.039429761 -0.0077112629
0.030128889 0.039241746 -0.007710827
0.031075621 0.033540826 -0.0076993336
0.030446468 0.036855057 -0.0077061397
0.031337664 0.051412348 -0.0077331248
0.024076518 0.051608358 -0.0077386997
0.026975544 0.052045558 -0.0077374554
0.031300187 0.051207516 -0.0077327308
0.017610069 0.052324116 -0.0077445987
0.013845627 0.052989736 -0.0077485959
0.031265371 0.051568329 -0.0077334088
0.034947477 0.05062836 -0.0077290651
0.032583777 0.048895739 -0.0077275573
0.018627455 0.051851887 -0.0077430732
0.023931073 0.052419636 -0.0077402447
0.019688038 0.052276667 -0.007743075
0.015761375 0.053002629 -0.007747238
0.034727231 0.051069457 -0.007730016
0.010777052 0.053645689 -0.0077520036
0.027527178 0.05069077 -0.0077344463
0.034117751 0.048497468 -0.0077256025
0.025170069 0.050804969 -0.007736336
0.016341655 0.052481301 -0.007745814
0.030864883 0.049185622 -0.0077292542
0.027486295 0.050161473 -0.0077334852
0.03404633 0.050577693 -0.0077296528
0.017765407 0.053129457 -0.0077459761
0.023569742 0.051991075 -0.0077397204
0.01742471 0.053008579 -0.0077460012
0.014485305 0.052835956 -0.007747862
0.02596676 0.05165467 -0.0077373381
0.017549507 0.053292852 -0.0077465684
0.025101293 0.051318966 -0.007737421
0.031942025 0.049924411 -0.007729894
0.022352224 0.052615818 -0.0077418233
0.017070636 0.052044842 -0.0077444953
0.026729705 0.050026745 -0.0077337692
0.024158217 0.050740086 -0.0077370075
0.032690007 0.049503293 -0.0077286302
0.025224265 0.050751314 -0.0077362438
0.012496635 0.053190179 -0.0077499053
0.029048068 0.05029171 -0.0077326526
0.026772913 0.051422697 -0.0077364114
0.033618931 0.050344825 -0.0077294898
0.026337186 0.0513101 -0.0077364962
0.01929583 0.051608637 -0.007742086
0.034562714 0.050331179 -0.0077287448
0.01929662 0.052961595 -0.0077445921
0.012873921 0.053067226 -0.0077494108
0.017320532 0.052819438 -0.00774576
0.020951029 0.052731954 -0.0077430713
0.018931421 0.051979791 -0.0077430368
0.029164802 0.04963854 -0.007731331
0.024215329 0.051307704 -0.007738017
0.024702393 0.050416902 -0.00773597
0.014212467 0.053032916 -0.0077483277
0.021641843 0.051379267 -0.0077399309
0.025256189 0.051879369 -0.0077383076
0.015853029 0.053086869 -0.0077473163
0.012310358 0.053387083 -0.0077504576
0.026735906 0.049938589 -0.0077335802
0.024118368 0.052137665 -0.0077396738
0.031695757 0.051355932 -0.0077327029
0.024731964 0.051898841 -0.0077387164
0.033931997 0.048995513 -0.0077267722
0.032562189 0.051352832 -0.0077321366
0.036028024 0.050660748 -0.0077283415
0.031459913 0.050427109 -0.0077311588
0.026958197 0.051554155 -0.0077365623
0.029892204 0.050153751 -0.0077318256
0.030460358 0.051607005 -0.0077341222
0.027843604 0.051921353 -0.0077365828
0.029605543 0.051691625 -0.0077348645
0.022273339 0.052024785 -0.0077407886
0.028662337 0.049452052 -0.0077313413
0.027543923 0.049815789 -0.0077328277
0.029763343 0.051702634 -0.0077347704
0.035712793 0.050091475 -0.007727575
0.033633217 0.050465286 -0.007729731
0.021783914 0.052540243 -0.0077420953
0.010599103 0.054035485 -0.0077528362
0.033168815 0.050424922 -0.0077300095
0.032304246 0.048951354 -0.0077277725
0.032905452 0.050167527 -0.0077296407
0.013081921 0.053580072 -0.0077502173
0.035075761 0.050472088 -0.0077287252
0.034745947 0.051147118 -0.0077302339
0.021174051 0.052182201 -0.0077417935
0.033533424 0.050896149 -0.0077305534
0.018525248 0.052062035 -0.0077435118
0.022938859 0.050817046 -0.0077379816
0.027302459 0.051875219 -0.0077368706
0.023845879 0.052342437 -0.0077402457
0.035490021 0.050781943 -0.0077290242
0.035080321 0.049540132 -0.0077269557
0.032062348 0.049947344 -0.0077297934
0.016386312 0.052876897 -0.0077464809
0.031116463 0.051346164 -0.0077331574
0.025875438 0.051950924 -0.0077381018
0.033276457 0.049394067 -0.0077278852
0.023506589 0.051088125 -0.0077380543
0.028238149 0.051725309 -0.0077359448
0.022317624 0.05215691 -0.0077409712
0.03084527 0.050315976 -0.0077313646
0.025554396 0.051226705 -0.0077369525
0.016373886 0.05273252 -0.0077462974
0.028932964 0.05143493 -0.0077349306
0.020340439 0.052606583 -0.0077431402
0.0291859 0.050873086 -0.0077336342
0.025734499 0.051324282 -0.0077369423
0.035204668 0.048962995 -0.0077257813
0.034001365 0.049095619 -0.0077269082
0.016506186 0.052424215 -0.0077455943
0.031743936 0.049298741 -0.0077289068
0.025397552 0.051154789 -0.0077368491
0.032789536 0.048649643 -0.0077269147
0.032226246 0.05118046 -0.0077320845
0.028160794 0.050843403 -0.0077343103
0.021025028 0.051655386 -0.0077409348
0.02937014 0.049974758 -0.0077317976
0.025387656 0.052377332 -0.0077392287
0.032826468 0.04982822 -0.0077290428
0.030039661 0.051523894 -0.0077342871
0.031465258 0.049034599 -0.0077285492
0.01032781 0.054004487 -0.0077529685
0.024043851 0.052195489 -0.0077397865
0.032022126 0.051438808 -0.0077327196
0.02491642 0.051893301 -0.0077385833
0.011725101 0.053571198 -0.0077512232
0.028195681 0.051487103 -0.0077354987
0.03466085 0.050594836 -0.007729203
0.034513582 0.04809963 -0.0077246265
0.02372445 0.052333515 -0.0077402829
0.027111856 0.050074857 -0.0077336053
0.032831281 0.049689323 -0.0077288416
0.032507632 0.049564708 -0.0077288277
0.035226349 0.050990619 -0.0077295224
0.028145352 0.049958915 -0.0077326377
0.030973159 0.049826693 -0.0077304118
0.017521456 0.052548788 -0.0077451109
0.018071216 0.052021191 -0.0077437959
0.021310622 0.051681086 -0.0077407942
0.028580464 0.051641896 -0.007735549
0.032656003 0.048854206 -0.0077274083
0.026858319 0.051604308 -0.007736702
0.026768334 0.050754696 -0.0077351262
0.03171549 0.050736647 -0.0077316002
0.010656092 0.05384881 -0.0077524767
0.034370951 0.049373638 -0.0077271755
0.026575135 0.051942941 -0.0077375057
0.018610634 0.052761141 -0.0077446899
0.018395208 0.052548964 -0.0077444953
0.015263033 0.053198129 -0.0077479579
0.032701131 0.048515864 -0.0077266931
0.012676749 0.053593896 -0.0077505396
0.035074264 0.051185559 -0.0077300337
0.027748778 0.049895555 -0.0077328379
0.024851259 0.050834976 -0.0077366834
0.029278323 0.049986411 -0.0077319178
0.019120203 0.051907498 -0.0077427621
0.022138173 0.051554095 -0.0077399299
0.026050251 0.051303416 -0.0077367243
0.024152225 0.051890071 -0.0077391514
0.011381738 0.053908728 -0.0077520902
0.022658505 0.051445942 -0.0077394261
0.021365667 0.052863244 -0.0077430005
0.027034998 0.049907845 -0.0077334461
0.032409351 0.05101344 -0.0077316281
0.027430601 0.051083308 -0.0077353646
0.020441506 0.052585505 -0.0077431151
0.030525079 0.049826868 -0.0077306726
0.020929338 0.052555822 -0.0077427006
0.032080993 0.051384062 -0.0077325464
0.023148196 0.051353477 -0.0077388627
0.028270902 0.050374079 -0.0077333986
0.026713386 0.051925376 -0.0077373595
0.026307479 0.052134693 -0.0077380757
0.027700813 0.050467025 -0.0077339825
0.020444904 0.051919878 -0.007741855
0.034890242 0.050004523 -0.0077279801
0.032445058 0.049841244 -0.0077294274
0.035070181 0.048002996 -0.007723995
0.024867687 0.051306523 -0.0077375504
0.019762417 0.051630411 -0.0077417479
0.022815784 0.052639328 -0.0077415085
0.030687487 0.051492549 -0.007733732
0.01219996 0.053872027 -0.0077514159
0.024011422 0.051942855 -0.0077393609
0.023284353 0.051250678 -0.0077386037
0.028124362 0.051037826 -0.0077347006
0.016474685 0.052346677 -0.007745503
0.026393734 0.052021705 -0.0077377367
0.031061321 0.050956961 -0.0077324952
0.026577037 0.05092233 -0.0077356216
0.035366002 0.047983103 -0.0077238274
0.035032123 0.049234454 -0.0077264016
0.030800022 0.051244646 -0.0077331993
0.034260109 0.048203714 -0.0077249617
0.027962958 0.050617475 -0.00773403
0.026537267 0.050385959 -0.0077345851
0.010456718 0.053846229 -0.0077525438
0.012742207 0.053195965 -0.007749747
0.016530318 0.052960753 -0.0077466345
0.029969262 0.05094517 -0.0077332244
0.019483827 0.053076152 -0.0077447644
0.026301762 0.050675407 -0.0077353255
0.012450731 0.053136677 -0.007749869
0.033913042 0.049777955 -0.0077282037
0.032641858 0.051072758 -0.007731617
0.023096424 0.05107468 -0.0077383476
0.030148219 0.050599895 -0.0077323965
0.010594474 0.05402125 -0.00775288
0.035615202 0.050046988 -0.0077274819
0.035039462 0.05129043 -0.0077302638
0.033011101 0.048490278 -0.0077263773
0.020198913 0.050898951 -0.0077401274
0.029762721 0.049141344 -0.0077299238
0.018461 0.051034287 -0.0077416501
0.0304005 0.048705131 -0.0077286973
0.016310943 0.052086309 -0.0077451388
0.025988732 0.049469844 -0.007733339
0.013326527 0.052384611 -0.0077478266
0.018525872 0.051220383 -0.0077419155
0.020921456 0.050474688 -0.0077388068
0.019929454 0.051023122 -0.0077405698
0.020774642 0.050402272 -0.0077388468
0.022587823 0.049847066 -0.0077364701
0.011318817 0.053105898 -0.007750547
0.014415669 0.052423202 -0.0077470657
0.019628996 0.050504573 -0.0077398843
0.03073304 0.048736546 -0.0077285259
0.022918774 0.049919028 -0.0077363965
0.013119373 0.052547205 -0.0077482932
0.023094779 0.050186574 -0.0077367476
0.011491559 0.053212423 -0.0077506998
0.020685917 0.050191626 -0.0077385227
0.024933392 0.05015932 -0.0077353683
0.023989815 0.049442939 -0.0077347127
0.033181749 0.048075367 -0.0077255662
0.028770968 0.04872115 -0.0077300039
0.034775287 0.048000749 -0.0077242083
0.017011551 0.051459342 -0.0077434578
0.027023716 0.049039479 -0.007731766
0.022227587 0.050230935 -0.0077374629
0.013979195 0.052661121 -0.0077478704
0.027711574 0.049399316 -0.0077318833
0.02279014 0.049755521 -0.0077361376
0.025979497 0.049385972 -0.0077331648
0.024232885 0.050153062 -0.0077357884
0.025137406 0.049753148 -0.0077344724
0.028946035 0.048742358 -0.0077298381
0.035031427 0.047915071 -0.0077239745
0.02123123 0.050955448 -0.0077394485
0.017817765 0.051389419 -0.0077428068
0.019478662 0.051417366 -0.0077415728
0.020071976 0.05125026 -0.0077408426
0.017334934 0.051755317 -0.007743808
0.02818146 0.04930792 -0.0077313776
0.023326725 0.050561648 -0.0077372869
0.027198924 0.049253993 -0.0077320603
0.010375259 0.053473886 -0.0077519654
0.018999843 0.051200017 -0.0077415346
0.013265609 0.052498542 -0.0077481256
0.015957328 0.052213676 -0.0077456464
0.023108203 0.050471857 -0.0077372738
0.02596961 0.049505211 -0.0077333455
0.032107402 0.048299052 -0.0077267676
0.030353021 0.048855837 -0.0077289692
0.01402068 0.052633658 -0.0077477577
0.019416373 0.051500604 -0.0077417935
0.030422142 0.048723433 -0.0077287457
0.024799421 0.050241824 -0.0077355173
0.02198606 0.05067277 -0.0077384659
0.031527247 0.04828636 -0.0077271364
0.014354572 0.05260266 -0.0077474774
0.032384839 0.048563875 -0.0077269939
0.021435488 0.050054442 -0.0077377218
0.02418649 0.049673751 -0.0077350694
0.027110577 0.048934925 -0.0077315294
0.024295934 0.050079759 -0.0077356747
0.020874102 0.050897151 -0.0077396673
0.029585071 0.048598286 -0.0077291154
0.024738416 0.050221965 -0.0077356291
0.023292322 0.050368398 -0.0077368948
0.028405167 0.049132358 -0.0077309306
0.02812287 0.049131993 -0.007731182
0.023198703 0.049445745 -0.0077353562
0.03083168 0.04863856 -0.0077282642
0.023445513 0.050341841 -0.0077367551
0.023068573 0.050042305 -0.0077365241
0.024831995 0.049722623 -0.0077346605
0.0070305304 0.054300666 -0.0077558928
0.030642495 0.048402093 -0.0077280183
0.020037498 0.047818229 -0.0077341949
0.018356476 0.046424802 -0.0077325595
0.012792535 0.051627863 -0.007746669
0.020957462 0.04716533 -0.0077323043
0.013350802 0.051607609 -0.0077462993
0.019187562 0.046592407 -0.0077323378
0.022437254 0.04951103 -0.0077359625
0.013318566 0.052344557 -0.0077477773
0.011357969 0.05160509 -0.0077476301
0.013049196 0.050246481 -0.007743726
0.015161913 0.050921481 -0.0077436944
0.018398827 0.046689872 -0.0077329981
0.014662241 0.050610706 -0.0077433693
0.020770172 0.048745111 -0.0077355937
0.021148855 0.048898369 -0.0077355835
0.010458732 0.052864507 -0.00775071
0.019640138 0.050285861 -0.007739401
0.014746483 0.048946425 -0.0077400398
0.018554455 0.049919263 -0.0077394429
0.017215356 0.047916003 -0.0077362922
0.021200478 0.048259232 -0.0077343541
0.017548751 0.049440861 -0.0077390731
0.020235687 0.046814289 -0.007732051
0.017831879 0.048702199 -0.0077374442
0.018541986 0.050603025 -0.0077408091
0.016836967 0.048332654 -0.007737394
0.010806169 0.051413335 -0.0077476059
0.012890078 0.052283421 -0.0077479151
0.016798424 0.048899904 -0.0077385516
0.0096414713 0.052233126 -0.0077500339
0.017731048 0.050534867 -0.0077411202
0.012724206 0.050254416 -0.0077439831
0.018034397 0.049628682 -0.0077392212
0.010595826 0.051494185 -0.0077478909
0.01820061 0.048400592 -0.0077365809
0.010305455 0.052573204 -0.0077502807
0.023358159 0.048516829 -0.0077333753
0.010064838 0.052310683 -0.0077498914
0.011122905 0.052442398 -0.0077494117
0.023981329 0.048877873 -0.0077336156
0.017661577 0.050225127 -0.0077406275
0.015289319 0.051728405 -0.0077452292
0.02212858 0.049256563 -0.0077356617
0.021162238 0.049414333 -0.0077366498
0.014604422 0.050853461 -0.0077439337
0.020565607 0.049924385 -0.00773803
0.0088402256 0.053606395 -0.0077532972
0.014419534 0.049175985 -0.0077406676
0.020992042 0.049243819 -0.0077363704
0.015333161 0.050070781 -0.0077418857
0.012527484 0.050442681 -0.0077445158
0.017195793 0.04957876 -0.0077396776
0.021692449 0.049389865 -0.0077362512
0.012498035 0.051351648 -0.0077463579
0.020397888 0.049699109 -0.0077376808
0.018237375 0.046502702 -0.0077327774
0.021637931 0.048215345 -0.0077338931
0.013986869 0.051518083 -0.0077456492
0.019939266 0.049130969 -0.0077368817
0.0074319015 0.053660747 -0.0077543524
0.015982114 0.050638415 -0.0077425209
0.017892227 0.047370914 -0.0077346941
0.019636959 0.047237922 -0.007733284
0.018932648 0.050344281 -0.0077400212
0.016083593 0.051389251 -0.0077440231
0.020942466 0.04944858 -0.0077368482
0.010444157 0.051753476 -0.0077484953
0.012623252 0.052272771 -0.0077480846
0.013464902 0.049912214 -0.0077427714
0.019753557 0.048365574 -0.0077355015
0.018512653 0.047924392 -0.0077354773
0.019632613 0.047166172 -0.0077331555
0.018960278 0.046893753 -0.0077330633
0.013776475 0.049606666 -0.0077419267
0.019956272 0.049275432 -0.0077371593
0.022067806 0.049773235 -0.0077367504
0.021628499 0.048930235 -0.0077354168
0.013009013 0.050081972 -0.0077434466
0.012346961 0.051821392 -0.0077473386
0.019831734 0.048966412 -0.0077366424
0.0094848424 0.053416241 -0.0077525354
0.01407632 0.049459998 -0.0077415076
0.013722328 0.051932473 -0.0077467072
0.0200192 0.048499461 -0.0077356012
0.015719663 0.050545879 -0.0077425144
0.01446178 0.049220987 -0.0077407663
0.017164135 0.050133247 -0.0077407113
0.018321151 0.048769452 -0.0077372403
0.019730743 0.049201336 -0.00773719
0.016797623 0.050265748 -0.0077413092
0.012890474 0.05061955 -0.0077446471
0.02093179 0.047811836 -0.0077335206
0.018852439 0.05008341 -0.0077395248
0.021436727 0.049939428 -0.0077374703
0.017488012 0.049208768 -0.0077387388
0.014563688 0.051289998 -0.007744866
0.015277155 0.051183503 -0.0077440985
0.013217018 0.050028428 -0.0077431952
0.016229272 0.048523296 -0.007738139
0.020295819 0.049516831 -0.0077374387
0.017630251 0.04881921 -0.0077377888
0.018336346 0.047908876 -0.007735509
0.015760962 0.049838085 -0.0077410736
0.021725455 0.048877507 -0.0077351858
0.018709641 0.047855787 -0.0077351225
0.016217319 0.048317105 -0.0077377171
0.014495082 0.050360583 -0.0077429828
0.018593416 0.049204204 -0.0077379611
0.012183437 0.052032415 -0.0077479561
0.013605602 0.051766012 -0.0077464464
0.018002726 0.049383793 -0.007738668
0.016613716 0.04773891 -0.0077363816
0.012966502 0.051697139 -0.0077466541
0.013674824 0.049977861 -0.0077427686
0.018172733 0.048922885 -0.0077376286
0.017310265 0.049465485 -0.0077393376
0.016599322 0.047629975 -0.0077361432
0.022013063 0.049680565 -0.0077365548
0.010210872 0.052514952 -0.0077501698
0.018932512 0.049808249 -0.0077389278
0.017732423 0.050338477 -0.0077408287
0.019452659 0.047763653 -0.007734491
0.017501488 0.048644483 -0.0077375309
0.01318489 0.051046677 -0.0077452459
0.01694832 0.04751002 -0.0077356617
0.023377525 0.048352305 -0.0077330288
0.01535579 0.050278001 -0.0077422676
0.022037689 0.049265426 -0.0077357623
0.018954715 0.048449192 -0.0077361916
0.02167828 0.049784895 -0.0077369926
0.0089393631 0.053015284 -0.0077520735
0.014519569 0.050909057 -0.0077440771
0.011118484 0.052533492 -0.0077496008
0.017834222 0.046852373 -0.0077337525
0.015116105 0.051734395 -0.0077453763
0.018615684 0.04941022 -0.0077382992
0.022519818 0.048667535 -0.0077341883
0.010948259 0.051847294 -0.0077483854
0.018045619 0.048297741 -0.0077364943
0.017804241 0.047085419 -0.0077342088
0.017812602 0.048727434 -0.0077375206
0.017951578 0.047915224 -0.007735766
0.020313021 0.048151545 -0.0077346661
0.013275806 0.052294236 -0.0077477205
0.02167457 0.048053391 -0.0077335606
0.019907553 0.046547178 -0.007731739
0.013969567 0.049340062 -0.0077412543
0.017221389 0.050372783 -0.0077411984
0.017276602 0.048605565 -0.0077376091
0.022477435 0.049263366 -0.0077354754
0.014460308 0.049839649 -0.0077419444
0.011623198 0.052662302 -0.0077495747
0.015341068 0.050918426 -0.0077435314
0.015240538 0.049501903 -0.0077407728
0.014628687 0.051762789 -0.0077456762
0.013338462 0.050065018 -0.0077431579
0.01006899 0.052436039 -0.0077501084
0.013670067 0.050903991 -0.007744621
0.011043133 0.05153098 -0.0077476571
0.018388439 0.049973417 -0.0077395909
