# .PCD v0.7 - Point Cloud Data file format
VERSION 0.7
FIELDS x y z
SIZE 4 4 4
TYPE F F F
COUNT 1 1 1
WIDTH 1235
HEIGHT 1
VIEWPOINT 0 0 0 1 0 0 0
POINTS 1235
DATA ascii
-0.013067167 0.048242111 -0.008558549
-0.012709155 0.048023671 -0.0085564228
-0.012398357 0.048085582 -0.0085548516
-0.012099618 0.048055805 -0.0085532442
-0.011801503 0.048211422 -0.0085518416
-0.011354225 0.048122931 -0.0085494388
-0.01084396 0.048107751 -0.0085468255
-0.010565022 0.048094187 -0.0085453894
-0.010284834 0.048176158 -0.0085440511
-0.0099805659 0.048113391 -0.0085424352
-0.0097369049 0.048159953 -0.0085407058
-0.0092138443 0.048232954 -0.0084996801
-0.0088843442 0.048271634 -0.008450903
0.0152767 0.04834386 -0.00841022
0.015600909 0.048328806 -0.0084115965
0.015802689 0.048225362 -0.008410451
0.016259659 0.04820545 -0.0084080677
0.016717754 0.048154414 -0.0084056463
0.017011683 0.048209988 -0.0084041841
0.017356573 0.048171621 -0.0084023587
0.017667856 0.048033055 -0.0084006041
-0.023168895 0.048551384 -0.0086105717
-0.022905812 0.04861524 -0.0086093191
-0.022603845 0.048540615 -0.0086077265
-0.02215988 0.048561525 -0.008605523
-0.021738239 0.048583727 -0.0086034322
-0.021392301 0.048635721 -0.008601753
-0.02113042 0.048572518 -0.0086003551
-0.020780597 0.048487868 -0.0085984757
-0.020541526 0.048590805 -0.0085973591
-0.02022941 0.048607264 -0.0085957805
-0.019701736 0.048613608 -0.008593088
-0.019309837 0.048544545 -0.008591013
-0.019060455 0.048463184 -0.0085896514
-0.018689372 0.048501648 -0.0085877869
-0.018345108 0.04842953 -0.0085859448
-0.018125108 0.048497703 -0.0085848868
-0.017658304 0.048437305 -0.0085824281
-0.017158307 0.048450753 -0.00857988
-0.016906543 0.048513725 -0.0085786544
-0.016617145 0.048491798 -0.0085771596
-0.016381441 0.048500389 -0.0085759694
-0.015890086 0.048516501 -0.0085734902
-0.015433311 0.04849961 -0.0085711516
-0.015118517 0.048533224 -0.0085695833
-0.014769588 0.048562597 -0.0085678361
-0.014438347 0.048535936 -0.0085661011
-0.014058685 0.048510421 -0.0085640708
-0.013622869 0.048595682 -0.0085618645
-0.013297125 0.048592124 -0.0085601415
-0.012986119 0.048611674 -0.0085585229
-0.012690763 0.048483294 -0.008556826
-0.012410831 0.048502136 -0.0085553713
-0.012009334 0.048553877 -0.0085533103
-0.011549428 0.048528355 -0.0085508637
-0.011199757 0.048549544 -0.0085491026
-0.010903687 0.048553396 -0.0085476004
-0.010616772 0.048399668 -0.0085459761
-0.010249075 0.04842272 -0.0085441303
-0.01002168 0.04844743 -0.0085429987
-0.0095587866 0.048420276 -0.0085406117
-0.0090836119 0.048501078 -0.008538275
-0.0088156611 0.048510343 -0.008535699
-0.0085027255 0.048499219 -0.0084896507
-0.0081891753 0.04856139 -0.0084884427
-0.0079119625 0.048655268 -0.0084878961
0.014596622 0.048644956 -0.0084170932
0.01495566 0.048525114 -0.0084125893
0.015267694 0.048542466 -0.0084135355
0.015518031 0.048577499 -0.0084122848
0.015968548 0.048538152 -0.0084099248
0.016481606 0.04869822 -0.00840744
0.016658343 0.048608631 -0.0084064314
0.017057456 0.048597462 -0.0084043546
0.017316185 0.048631873 -0.0084030516
0.017642897 0.048517708 -0.008401243
-0.022880774 0.048856054 -0.0086094439
-0.02264748 0.04888171 -0.0086083002
-0.02216717 0.048859101 -0.0086058676
-0.021740377 0.048880659 -0.0086037526
-0.021440249 0.048868246 -0.0086022364
-0.021136442 0.048906904 -0.008600736
-0.020855034 0.048936389 -0.008599326
-0.020396654 0.048940264 -0.0085969837
-0.019909021 0.048974503 -0.008594525
-0.019658098 0.048981264 -0.0085932491
-0.019381192 0.04896275 -0.0085918149
-0.01903256 0.049020413 -0.008590092
-0.018723629 0.048854474 -0.0085883327
-0.018437827 0.048732903 -0.0085867392
-0.01795302 0.04883771 -0.0085843606
-0.017661963 0.048736792 -0.0085827615
-0.017244626 0.048728298 -0.008580612
-0.016908867 0.048828196 -0.0085789952
-0.016576931 0.048803315 -0.0085772788
-0.01631863 0.048779927 -0.0085759405
-0.015860341 0.048822019 -0.008573656
-0.015363412 0.048799254 -0.0085711069
-0.01513706 0.048833814 -0.0085699921
-0.014751578 0.048930876 -0.0085681286
-0.014537143 0.048852351 -0.0085669514
-0.014099471 0.048890557 -0.0085646985
-0.013632067 0.048891664 -0.0085622361
-0.013278892 0.048906256 -0.0085603893
-0.012987345 0.048897285 -0.0085588405
-0.012779571 0.048924722 -0.0085577751
-0.012429126 0.048986088 -0.0085559934
-0.012146227 0.048939433 -0.0085544512
-0.011660453 0.048953939 -0.0085519087
-0.011248481 0.048938788 -0.0085497629
-0.010921087 0.049003851 -0.0085481657
-0.010737764 0.048713595 -0.0085469251
-0.010340188 0.048865918 -0.0085450616
-0.010018915 0.048863932 -0.0085434243
-0.0095824357 0.048762586 -0.0085410951
-0.0090568624 0.048796188 -0.0085384529
-0.0088044666 0.048804324 -0.008537163
-0.0084880218 0.0487797 -0.0085355071
-0.0082356762 0.048841339 -0.0085342731
-0.0079194233 0.048844963 -0.0085323881
-0.0074715922 0.048807327 -0.0084643783
-0.0071403719 0.048943885 -0.0084987711
-0.0067399768 0.04900042 -0.0084230825
0.013534646 0.048945446 -0.0084197018
0.014036266 0.048856813 -0.0084201964
0.01436501 0.048826836 -0.0084167356
0.014638931 0.048802055 -0.0084170429
0.01492502 0.048802488 -0.0084155714
0.015187792 0.048826396 -0.0084142461
0.015486664 0.048837751 -0.0084127206
0.015952544 0.048864961 -0.0084103504
0.016412269 0.048915889 -0.0084080277
0.016692836 0.048900753 -0.0084065599
0.016995439 0.048953082 -0.0084050484
0.017272511 0.048878182 -0.0084035378
0.017785396 0.048900813 -0.0084009087
-0.022653203 0.049085785 -0.0086085405
-0.022189047 0.049172841 -0.0086063035
-0.021820333 0.049136933 -0.0086044166
-0.021406479 0.049187608 -0.0086023984
-0.021132242 0.049137842 -0.0086009549
-0.020825181 0.049235694 -0.0085994853
-0.020555127 0.04916491 -0.0085980305
-0.020085724 0.049252771 -0.0085957199
-0.01964956 0.049215991 -0.0085934503
-0.01932965 0.049250137 -0.0085918522
-0.019053975 0.04926876 -0.0085904617
-0.018740471 0.049318824 -0.0085889054
-0.018330958 0.049250707 -0.0085867317
-0.017960047 0.049190771 -0.0085847666
-0.017531339 0.049203523 -0.0085825808
-0.017237563 0.049210202 -0.0085810795
-0.01695109 0.049225826 -0.0085796285
-0.016596222 0.049247913 -0.0085778385
-0.016180886 0.049095914 -0.0085755689
-0.015873693 0.049232829 -0.0085741505
-0.015459619 0.049147405 -0.0085719572
-0.015077693 0.049106311 -0.0085699726
-0.014842704 0.049139071 -0.0085688094
-0.014540307 0.049192533 -0.0085673248
-0.014078644 0.049208533 -0.008564936
-0.013623381 0.049196325 -0.0085625211
-0.013334592 0.049152613 -0.008560949
-0.013023572 0.049182471 -0.0085593425
-0.012730424 0.049205128 -0.0085578216
-0.012421041 0.049240686 -0.0085562281
-0.012000717 0.049228903 -0.0085539985
-0.011558047 0.049262878 -0.008551701
-0.011200803 0.04932899 -0.0085499324
-0.010984664 0.049361076 -0.008548867
-0.010646945 0.0491933 -0.0085469708
-0.010348532 0.049296308 -0.0085455617
-0.010059374 0.049333449 -0.0085441284
-0.0095858891 0.049214054 -0.0085415905
-0.0091692097 0.049235851 -0.0085394932
-0.008826172 0.049240548 -0.0085377395
-0.008486921 0.049112815 -0.0085358573
-0.008235693 0.0492789 -0.0085347407
-0.0079498198 0.04915484 -0.0085331379
-0.007464435 0.049099788 -0.0085305786
-0.0070105791 0.049072813 -0.0085224127
-0.0067244517 0.049179483 -0.0085142115
-0.0064758761 0.0491766 -0.0084958067
-0.0061447606 0.049275007 -0.0084946211
-0.0057490868 0.049304243 -0.0084373187
0.01202927 0.049371678 -0.0084055746
0.012421325 0.049366161 -0.0084290337
0.012814764 0.04927614 -0.0084269177
0.013065778 0.049281981 -0.0084256325
0.013518522 0.049268819 -0.0084232921
0.013945324 0.049218271 -0.0084210448
0.014250185 0.049224656 -0.0084194858
0.014593619 0.049096484 -0.0084175849
0.014914479 0.04923005 -0.0084160771
0.015321665 0.049134638 -0.0084138839
0.015770987 0.049180478 -0.0084116189
0.01604245 0.04917258 -0.0084102107
0.016436081 0.049210474 -0.008408214
0.016703166 0.049239632 -0.0084068626
0.016983194 0.049283601 -0.008405461
0.017303644 0.049172971 -0.0084036868
0.017701233 0.04928546 -0.0084017487
-0.022043383 0.049453124 -0.008605863
-0.021767303 0.049439896 -0.008604466
-0.021492034 0.049532827 -0.0086031854
-0.021167012 0.049475376 -0.0086014858
-0.020894777 0.049512949 -0.0086001325
-0.020421308 0.049568988 -0.008597767
-0.019925244 0.049512796 -0.0085951705
-0.019666053 0.04957518 -0.0085939104
-0.019359693 0.049553849 -0.0085923234
-0.019026706 0.049620125 -0.0085906899
-0.018735657 0.04959204 -0.0085891671
-0.01832711 0.049600046 -0.0085870782
-0.017857827 0.049542241 -0.0085846093
-0.017550744 0.049657438 -0.0085831564
-0.017332444 0.049675196 -0.0085820528
-0.016964315 0.049645949 -0.0085801361
-0.016660761 0.049659044 -0.0085785966
-0.016249714 0.049615562 -0.0085764593
-0.015724272 0.049558502 -0.0085737295
-0.015462775 0.049582008 -0.0085724257
-0.015170328 0.049590234 -0.0085709486
-0.014858618 0.049574334 -0.008569343
-0.014570666 0.049440056 -0.0085677374
-0.014281107 0.049528323 -0.0085663423
-0.013817992 0.049531836 -0.0085639134
-0.013345779 0.049492154 -0.0085613811
-0.013052152 0.049519237 -0.0085598603
-0.012703321 0.049557239 -0.0085580619
-0.012454841 0.049537148 -0.0085567301
-0.011982014 0.04957192 -0.0085542733
-0.011560643 0.049596019 -0.0085520763
-0.011240988 0.049608395 -0.0085504344
-0.010945904 0.049552783 -0.0085488716
-0.010607663 0.049633719 -0.0085472362
-0.010263571 0.049597755 -0.0085454462
-0.010079384 0.049613029 -0.0085445242
-0.0095815323 0.049652901 -0.0085420329
-0.0091572404 0.049679391 -0.0085398993
-0.0088612037 0.049691938 -0.0085383998
-0.0085434914 0.049530026 -0.008536594
-0.0082645668 0.04969186 -0.0085353311
-0.0077827973 0.049584392 -0.0085327355
-0.0075318106 0.049594816 -0.008531454
-0.00715815 0.049499061 -0.0085294284
-0.0067762109 0.049432762 -0.0085273916
-0.006433622 0.049432162 -0.0085256277
-0.0061415648 0.049477123 -0.008524172
-0.0057035019 0.049527634 -0.008516565
-0.0052328971 0.049569808 -0.0085156737
-0.004936683 0.049575802 -0.0084883124
-0.0046476475 0.049608488 -0.0084695658
-0.0042785755 0.049690239 -0.0084691448
-0.0039447574 0.049731437 -0.0084317392
0.010680575 0.049673729 -0.0084159356
0.010996792 0.04966642 -0.0084297527
0.011312241 0.049626928 -0.0084300004
0.011614462 0.049644534 -0.0084334631
0.012104657 0.04952579 -0.0084308302
0.012487286 0.049661376 -0.0084290057
0.012752404 0.049676903 -0.00842766
0.013215473 0.049663391 -0.0084252674
0.013630018 0.049706805 -0.0084231822
0.013985578 0.049698003 -0.0084213456
0.014251973 0.049729817 -0.0084200092
0.014565816 0.049577285 -0.0084182359
0.01485397 0.049732435 -0.008416919
0.015153416 0.04946069 -0.0084150918
0.015629239 0.049478091 -0.0084126629
0.016120415 0.049413037 -0.0084100598
0.016358789 0.049491569 -0.0084089097
0.016682725 0.049552564 -0.0084072975
0.01693704 0.049543384 -0.0084059732
0.017392371 0.049516313 -0.008403589
0.017899279 0.049592163 -0.0084010446
-0.021458792 0.049775656 -0.0086032711
-0.021164201 0.049926557 -0.008601943
-0.020901477 0.049947124 -0.0086006206
-0.020401226 0.049845688 -0.0085979532
-0.019992609 0.049858753 -0.0085958773
-0.019648626 0.049963418 -0.008594228
-0.019371161 0.049898051 -0.0085927406
-0.01912226 0.049846914 -0.0085914154
-0.018651379 0.04992241 -0.0085890815
-0.018175485 0.049929705 -0.0085866461
-0.01787957 0.049927596 -0.0085851261
-0.017552802 0.049959794 -0.0085834833
-0.017246913 0.049980953 -0.0085819364
-0.016978461 0.049996387 -0.0085805766
-0.016523387 0.050018582 -0.0085782707
-0.016085306 0.050028786 -0.0085760541
-0.015739277 0.050048035 -0.0085743153
-0.015435655 0.050063785 -0.0085727889
-0.01517343 0.0500344 -0.0085714255
-0.014864009 0.050055992 -0.008569872
-0.014569279 0.049906112 -0.0085682143
-0.014228848 0.04993948 -0.0085665118
-0.013759237 0.049877007 -0.0085639786
-0.013360237 0.049785104 -0.0085617742
-0.0130457 0.049785383 -0.0085601155
-0.012766048 0.049857583 -0.0085587194
-0.012450067 0.049844027 -0.0085570375
-0.012163457 0.049832441 -0.0085555147
-0.011684949 0.049845237 -0.0085530039
-0.011282245 0.049875583 -0.0085509261
-0.01099889 0.049884751 -0.0085494937
-0.010641353 0.049911797 -0.0085477009
-0.010340843 0.049926262 -0.0085461885
-0.010000993 0.049912948 -0.0085444432
-0.0096088033 0.049999248 -0.0085425377
-0.0091101602 0.050014418 -0.0085400129
-0.0088745905 0.049905092 -0.0085386932
-0.0085383262 0.049984146 -0.0085370513
-0.0082398672 0.050015397 -0.0085355481
-0.0078633009 0.049951434 -0.0085335411
-0.0073535349 0.050037928 -0.0085310107
-0.0070547843 0.04990023 -0.0085293259
-0.0067722015 0.049927872 -0.0085278992
-0.006481905 0.04994395 -0.0085264212
-0.0061470801 0.049934167 -0.008524688
-0.0058511416 0.049957391 -0.0085231904
-0.0053921062 0.049837034 -0.0085206972
-0.004950013 0.049833834 -0.0085184211
-0.0046700994 0.049863201 -0.0085170204
-0.004335687 0.049892474 -0.0085153393
-0.0040448876 0.049907625 -0.0085096397
-0.0036005294 0.049912672 -0.0084927427
-0.0031432463 0.050012082 -0.0084848497
-0.0029171547 0.050022453 -0.0084754238
-0.0025713621 0.050052065 -0.0084566018
-0.0023282217 0.050073553 -0.00844876
-0.0018244893 0.050095577 -0.0084104491
0.0098180305 0.049897693 -0.0084353853
0.010085687 0.049885221 -0.0084347427
0.010358607 0.049851451 -0.0084360503
0.010674957 0.049909014 -0.0084385192
0.011117819 0.049950231 -0.008436311
0.011530661 0.049915001 -0.0084341746
0.01185163 0.049901016 -0.0084325233
0.012183257 0.049909741 -0.0084308321
0.01249089 0.049924243 -0.0084292665
0.012777714 0.049945574 -0.0084278146
0.013159394 0.049989823 -0.0084258988
0.013859023 0.049994793 -0.0084223077
0.014272972 0.050013445 -0.0084202001
0.01456777 0.05000722 -0.0084186783
0.01486465 0.05003725 -0.0084171845
0.015309045 0.049920924 -0.0084147789
0.015756924 0.049929399 -0.0084124776
0.016062304 0.049959574 -0.0084109344
0.016381752 0.049921054 -0.0084092431
0.016656023 0.049814302 -0.0084077129
0.016983233 0.049919095 -0.0084061297
0.01734931 0.049869057 -0.0084041841
0.017724207 0.049853656 -0.0084022284
-0.020438969 0.05012567 -0.0085984394
-0.019964825 0.050312106 -0.0085962079
-0.019380264 0.050299868 -0.0085932072
-0.019028785 0.050285239 -0.0085913958
-0.018781025 0.050284822 -0.0085901255
-0.018345043 0.050212804 -0.008587813
-0.017802661 0.050204866 -0.0085850209
-0.017613061 0.050267033 -0.0085841147
-0.017246341 0.050257195 -0.0085822232
-0.017001895 0.050267648 -0.008580979
-0.016669221 0.050302938 -0.008579311
-0.01620103 0.050289344 -0.0085769128
-0.015794896 0.050373033 -0.0085749356
-0.015479375 0.050322305 -0.0085732797
-0.015210271 0.050322738 -0.0085719116
-0.014946481 0.050357163 -0.0085706059
-0.01452541 0.050349072 -0.0085684517
-0.014080039 0.050314963 -0.0085661337
-0.013664014 0.050391525 -0.0085640363
-0.013372906 0.05028626 -0.008562386
-0.013129424 0.050271954 -0.0085610878
-0.012762861 0.050271697 -0.0085591543
-0.012506568 0.050103147 -0.0085576177
-0.01208106 0.050247654 -0.0085555315
-0.011512838 0.050197899 -0.0085524777
-0.011263518 0.050172724 -0.0085511478
-0.010988677 0.050182529 -0.0085497573
-0.010651846 0.050207581 -0.0085480688
-0.010231695 0.050223041 -0.0085459445
-0.0097785015 0.0502619 -0.0085436795
-0.009450173 0.050211694 -0.0085419556
-0.0091800876 0.050358869 -0.0085407356
-0.0088688433 0.050253551 -0.0085390341
-0.008582836 0.050316393 -0.0085376361
-0.0081911404 0.050278056 -0.0085355779
-0.0079305815 0.05037545 -0.0085343411
-0.0075109974 0.050357893 -0.0085321628
-0.0070701139 0.050397061 -0.0085299341
-0.0067576254 0.050359931 -0.0085282866
-0.0064968453 0.050416838 -0.0085270042
-0.0061210962 0.05036528 -0.0085250149
-0.0057114018 0.050435137 -0.0085229799
-0.0053537809 0.050209902 -0.0085208984
-0.004978328 0.05027556 -0.0085190404
-0.0046786508 0.050184019 -0.0085174087
-0.004388575 0.050159253 -0.0085158953
-0.0040763561 0.050117444 -0.0085142516
-0.0036064852 0.050189126 -0.0085119223
-0.003169165 0.050215639 -0.0085097114
-0.0028812164 0.050200097 -0.0085082194
-0.0025817044 0.05021834 -0.0085060364
-0.0022770162 0.050243754 -0.0085003357
-0.0018934878 0.050210908 -0.0084595401
-0.0015168991 0.050292131 -0.0084903417
-0.0010859726 0.050331999 -0.0084899375
-0.00081288186 0.050292581 -0.0084502781
-0.00048472395 0.050349113 -0.0084675811
-0.00015427242 0.050407398 -0.0084829377
0.00022669608 0.050399009 -0.0084545966
0.00066865352 0.050438121 -0.008449954
0.0054671252 0.05044359 -0.0084063718
0.0058573196 0.050422717 -0.0084232688
0.0061117811 0.050423335 -0.008448205
0.0063931048 0.050390597 -0.0084352829
0.0070435875 0.050359875 -0.0084355269
0.0072948951 0.050340816 -0.0084475782
0.0076669911 0.050323233 -0.0084474338
0.0079415161 0.05026447 -0.0084348572
0.0082350802 0.050292511 -0.0084475167
0.0085259173 0.05030258 -0.008446563
0.0088888109 0.050274905 -0.0084480112
0.0093033602 0.050282434 -0.0084430072
0.0097332876 0.050274894 -0.0084436946
0.0099921087 0.050210495 -0.0084423097
0.010316912 0.050275397 -0.0084407274
0.010647874 0.050110377 -0.0084388703
0.011079742 0.050152596 -0.008436718
0.011563355 0.050235331 -0.0084343441
0.011848567 0.050214309 -0.0084328698
0.0121434 0.050201949 -0.0084313443
0.012404671 0.050234243 -0.0084300367
0.012664046 0.050235856 -0.0084287049
0.013187137 0.050314404 -0.0084260991
0.01364659 0.05026783 -0.0084236888
0.014007897 0.050338004 -0.0084219063
0.014252584 0.050297588 -0.0084206052
0.014496409 0.050339632 -0.0084193973
0.014859579 0.050340068 -0.0084175309
0.015131383 0.050341025 -0.0084161349
0.01559066 0.050365951 -0.0084137954
0.016020048 0.050374478 -0.0084115881
0.016284127 0.050376292 -0.0084102275
0.016647147 0.050273549 -0.0084082428
0.016962199 0.050412782 -0.0084067574
0.017407248 0.050258256 -0.008404294
0.017709311 0.050297171 -0.0084027722
0.018163219 0.05012669 -0.0084002437
-0.020696986 0.050473291 -0.0086001232
-0.020296723 0.05062186 -0.0085982308
-0.020030318 0.050739031 -0.0085969903
-0.019723751 0.050629724 -0.0085953083
-0.019409301 0.050748304 -0.0085938247
-0.019031091 0.05049381 -0.0085916258
-0.018263405 0.050608903 -0.0085878083
-0.017892849 0.05051497 -0.0085858097
-0.017537255 0.050538156 -0.0085840086
-0.017209897 0.050522853 -0.0085823135
-0.016968539 0.050608393 -0.0085811662
-0.016520638 0.050543092 -0.0085788034
-0.016071994 0.050601106 -0.0085765813
-0.015783926 0.050587274 -0.0085751023
-0.0154904 0.050643403 -0.008573669
-0.015186541 0.050646983 -0.0085721277
-0.014883477 0.050631773 -0.0085705696
-0.014485867 0.050661702 -0.0085685737
-0.013979457 0.050667048 -0.008565993
-0.013700318 0.050675448 -0.0085645393
-0.013334502 0.050644904 -0.008562576
-0.013088261 0.050650481 -0.0085612815
-0.012806355 0.050767928 -0.0085599236
-0.012488214 0.050608527 -0.0085580721
-0.012024242 0.050640661 -0.0085556591
-0.011576243 0.050628144 -0.0085532824
-0.011287314 0.050639801 -0.0085517745
-0.010983977 0.050652109 -0.0085502286
-0.010698698 0.050655071 -0.0085487803
-0.010360434 0.050551485 -0.0085469494
-0.0099175042 0.05054174 -0.0085446835
-0.0094021261 0.05062313 -0.0085421456
-0.0091458978 0.050588813 -0.0085408054
-0.0088880947 0.050560452 -0.0085394569
-0.0085841464 0.050580341 -0.0085379239
-0.0082377298 0.050654136 -0.0085362205
-0.0078629553 0.050648283 -0.0085342843
-0.0073596723 0.050676003 -0.0085317222
-0.0070889462 0.050692368 -0.0085303467
-0.006792129 0.050734397 -0.0085288631
-0.0065007741 0.050702866 -0.0085273301
-0.0062452881 0.050699737 -0.0085260104
-0.0057471199 0.0507068 -0.008523453
-0.005293156 0.05077887 -0.0085211936
-0.0049756663 0.050688621 -0.0085194688
-0.0046712081 0.050611056 -0.008517826
-0.0043790229 0.050511271 -0.0085162241
-0.004076554 0.050636116 -0.0085148085
-0.0036307895 0.050488021 -0.0085123666
-0.0031988453 0.050619449 -0.0085102953
-0.0028990149 0.050660633 -0.0085088033
-0.0025983979 0.050514121 -0.0085071083
-0.0023035852 0.050508332 -0.0085055921
-0.0019314126 0.050536092 -0.008503736
-0.0015040319 0.050579898 -0.0085016219
-0.0011168928 0.050604831 -0.0084996913
-0.00077524083 0.050663538 -0.0084980261
-0.0004530719 0.050598171 -0.0084963292
-0.00021796767 0.050643802 -0.0084951892
9.0693473e-05 0.050666414 -0.0084936507
0.00058180769 0.050680384 -0.0084911697
0.0010276939 0.050599959 -0.0084772687
0.0013438774 0.050589081 -0.0084641092
0.001628596 0.050649356 -0.0084685907
0.0019264818 0.05059154 -0.0084552579
0.0023008769 0.050591175 -0.0084447144
0.002679531 0.050703578 -0.0084802946
0.0031234655 0.050638791 -0.0084575973
0.0034207273 0.050650354 -0.0084610712
0.0037288484 0.050559264 -0.0084582018
0.0040028081 0.050573606 -0.0084545184
0.0043169498 0.050674785 -0.008461765
0.0046503493 0.05059211 -0.0084623909
0.0050978069 0.050599474 -0.0084634041
0.0055894209 0.050571203 -0.0084632058
0.00579869 0.050610997 -0.0084644482
0.0061336895 0.050612394 -0.0084627736
0.0065617487 0.050601456 -0.0084605403
0.0071988166 0.050656039 -0.0084572639
0.0077093728 0.050689802 -0.0084546283
0.0079011824 0.050691884 -0.0084536262
0.0082024001 0.050674453 -0.008452029
0.0085156318 0.050702002 -0.0084504206
0.0088377986 0.050733589 -0.0084487684
0.0092743216 0.050747786 -0.0084465276
0.0097132931 0.050718043 -0.0084442617
0.010032909 0.050587494 -0.0084424987
0.010311244 0.050723035 -0.0084412247
0.01059135 0.050632983 -0.0084397066
0.011138137 0.050590847 -0.0084368801
0.011519594 0.050635669 -0.0084349886
0.011845649 0.05066343 -0.0084333578
0.0121894 0.050453957 -0.008431375
0.012443422 0.050515424 -0.0084301336
0.012743073 0.050568067 -0.00842865
0.013180112 0.050563879 -0.008426399
0.013677564 0.050567787 -0.0084238471
0.013945905 0.050635148 -0.0084225377
0.014246486 0.050655555 -0.008421015
0.014533001 0.05060038 -0.0084194858
0.014974838 0.050581019 -0.0084171928
0.015411588 0.050696909 -0.0084150713
0.01568334 0.050742812 -0.0084137125
0.01604663 0.050699752 -0.008411793
0.016338643 0.050689396 -0.008410275
0.016630793 0.050692819 -0.0084087672
0.016898038 0.050726466 -0.0084074205
0.017332235 0.050668433 -0.0084051136
0.017755195 0.050703391 -0.0084029622
0.018118227 0.050644744 -0.0084010232
-0.019692104 0.051054202 -0.0085955914
-0.019408744 0.051063627 -0.0085941525
-0.019092605 0.050954618 -0.0085924221
-0.018716412 0.051036634 -0.0085905818
-0.018346393 0.050953954 -0.0085885962
-0.017857384 0.050837047 -0.0085859643
-0.017507186 0.050837979 -0.0085841687
-0.017247962 0.050876033 -0.0085828789
-0.016885823 0.050929051 -0.0085810777
-0.016562456 0.05098195 -0.0085794758
-0.016108464 0.050929904 -0.0085771084
-0.015810043 0.05091038 -0.0085755717
-0.015482984 0.050867114 -0.0085738637
-0.015274929 0.05096969 -0.0085729137
-0.01484908 0.050907329 -0.0085706813
-0.014431071 0.050967883 -0.0085686147
-0.014011437 0.050972737 -0.0085664801
-0.013733835 0.050952025 -0.0085650152
-0.013438973 0.051013775 -0.0085635278
-0.013076158 0.051050536 -0.0085616549
-0.012745764 0.051108729 -0.0085599739
-0.012342377 0.051057357 -0.0085577918
-0.011935335 0.050932802 -0.0085555101
-0.011615561 0.051093172 -0.0085539958
-0.011308415 0.051062811 -0.0085523436
-0.01106072 0.051111251 -0.0085511049
-0.010717619 0.051070414 -0.0085493149
-0.010418419 0.05098138 -0.0085476991
-0.0099170804 0.050958503 -0.0085451221
-0.00950401 0.050875105 -0.0085429316
-0.0091367969 0.050857142 -0.0085410429
-0.0089004412 0.050914582 -0.0085398946
-0.0084764464 0.051026922 -0.0085378438
-0.0083243577 0.050915338 -0.0085369442
-0.0078307856 0.050918553 -0.0085344072
-0.0074058212 0.050911438 -0.0085322112
-0.0071212538 0.050993491 -0.0085308338
-0.0067936946 0.050977781 -0.0085291313
-0.0065192962 0.050973419 -0.008527712
-0.0060701156 0.050988026 -0.0085254172
-0.0056264494 0.050985094 -0.0085231289
-0.005340775 0.051044445 -0.0085217217
-0.0050468091 0.051098451 -0.0085202688
-0.0047309883 0.05100958 -0.0085185599
-0.0043870113 0.050954673 -0.0085167382
-0.0039625387 0.05109496 -0.0085147154
-0.0036078379 0.050923605 -0.0085127139
-0.0028934535 0.051141053 -0.0085092895
-0.0026273774 0.050865419 -0.0085076308
-0.0023008413 0.051043201 -0.0085061491
-0.0019029297 0.050936092 -0.0085040135
-0.0011924128 0.050898623 -0.0085003823
-0.00079487881 0.050934616 -0.0084984107
-0.00046175905 0.050880797 -0.0084966701
-0.00020443962 0.0509299 -0.0084954211
0.00011684175 0.050933629 -0.0084938025
0.00056572148 0.050983209 -0.0084915739
0.0010221542 0.050931044 -0.0084891524
0.0012732318 0.051008325 -0.0084879296
0.0015808539 0.051035333 -0.0084863575
0.0019283439 0.051026259 -0.0084845414
0.0023584259 0.051059708 -0.0084823426
0.0027905754 0.051074862 -0.0084801111
0.003141355 0.051072594 -0.0084782857
0.0033858044 0.05107281 -0.0084770191
0.00369643 0.050965756 -0.0084753409
0.0040068235 0.050967429 -0.0084737893
0.0044302624 0.051131338 -0.0084718391
0.0046052672 0.050826319 -0.008470648
0.0050988244 0.050814081 -0.0084681632
0.0054558013 0.050923102 -0.0084664905
0.0058069974 0.050840948 -0.0084646475
0.0061550452 0.050889872 -0.0084629534
0.0064421603 0.050876465 -0.0084614605
0.0068678334 0.050948393 -0.0084593091
0.0073289177 0.050900992 -0.0084568448
0.0076185497 0.05091219 -0.0084553398
0.0079497397 0.050961334 -0.0084536597
0.0082128746 0.051009305 -0.0084523326
0.0085846204 0.050985087 -0.008450361
0.0089394739 0.051038351 -0.0084485607
0.0094240978 0.051006492 -0.0084460359
0.0095743518 0.050946575 -0.0084452089
0.0099799419 0.051030077 -0.0084432326
0.010280108 0.051053792 -0.0084417304
0.010734297 0.050953526 -0.0084393155
0.011049597 0.051099408 -0.0084378663
0.011514396 0.051139563 -0.0084355436
0.011796545 0.051095258 -0.0084340619
0.012157649 0.051001057 -0.0084321164
0.012449577 0.050995212 -0.0084306095
0.012750803 0.050977331 -0.0084290411
0.013219754 0.050958771 -0.0084266122
0.013608983 0.05083888 -0.0084244851
0.013909222 0.050860494 -0.0084229643
0.014186965 0.050929479 -0.008421611
0.014529038 0.051002752 -0.0084199281
0.014801934 0.050979301 -0.0084185023
0.015167769 0.050971057 -0.0084166136
0.015615515 0.051030673 -0.0084143635
0.016029302 0.050935403 -0.008412132
0.016311847 0.050987564 -0.0084107276
0.016649555 0.050968815 -0.0084089618
0.016903033 0.051018134 -0.0084077017
0.017236421 0.051035058 -0.0084059946
0.017740088 0.051025134 -0.0084033795
0.018120382 0.051064782 -0.0084014544
0.018397152 0.051082265 -0.0084000435
-0.019168444 0.051399786 -0.0085932752
-0.018652909 0.051423717 -0.008590661
-0.018230649 0.051432077 -0.0085885031
-0.017941549 0.051293407 -0.0085868742
-0.01761445 0.051296283 -0.0085851997
-0.017289111 0.051158529 -0.0085833864
-0.016998641 0.051338661 -0.0085820854
-0.01673644 0.051429749 -0.0085808374
-0.016210945 0.051292837 -0.0085780071
-0.015784569 0.051193666 -0.0085757356
-0.015475377 0.051221799 -0.0085741933
-0.015207971 0.051266357 -0.0085728802
-0.014943659 0.051256061 -0.008571527
-0.01458488 0.051259357 -0.0085697006
-0.014148285 0.051275782 -0.0085674943
-0.013743216 0.051336873 -0.008565478
-0.013435774 0.051270451 -0.0085637905
-0.013140927 0.051249549 -0.0085622109
-0.012797617 0.05128172 -0.0085604368
-0.012387957 0.051352739 -0.0085583534
-0.011933157 0.051346425 -0.0085559487
-0.011660914 0.051410113 -0.0085545797
-0.011321145 0.051407855 -0.008552786
-0.010995064 0.051430061 -0.0085511087
-0.010260168 0.051296178 -0.008547226
-0.0099703763 0.051470242 -0.0085459361
-0.0094898026 0.051334485 -0.0085433442
-0.0091938544 0.051163759 -0.0085416567
-0.0089043397 0.051325072 -0.0085403481
-0.0086264238 0.051322803 -0.0085389251
-0.0081760474 0.051311705 -0.0085366033
-0.0076969974 0.051216807 -0.0085340366
-0.007391775 0.051241826 -0.0085324915
-0.007119691 0.051253438 -0.0085311029
-0.0067523252 0.051285274 -0.0085292459
-0.0064841574 0.05123502 -0.0085278125
-0.0061975215 0.051300209 -0.0085264044
-0.0057442812 0.051312815 -0.0085240854
-0.0053417627 0.051329441 -0.0085220318
-0.0050553163 0.051331777 -0.0085205631
-0.0046673417 0.051339064 -0.0085185859
-0.0043099122 0.051379036 -0.0085167969
-0.0038187853 0.051377542 -0.0085142804
-0.0035627 0.051399715 -0.0085129933
-0.0032068342 0.051273111 -0.0085110357
-0.002876956 0.051478334 -0.0085095661
-0.0025730724 0.051311087 -0.008507831
-0.0023049153 0.051470425 -0.0085066268
-0.001842025 0.051326323 -0.0085041169
-0.001395883 0.05135287 -0.0085018892
-0.0010953094 0.051352885 -0.0085003711
-0.00081181247 0.051335208 -0.0084989183
-0.00052468793 0.051254742 -0.0084973825
-0.00022522698 0.051330809 -0.0084959492
0.00021443772 0.051256273 -0.0084936479
0.00063216325 0.051375352 -0.0084916502
0.00098037464 0.051260777 -0.0084897215
0.001243127 0.051333889 -0.0084884306
0.0016126081 0.051320661 -0.0084864963
0.0019107664 0.051304579 -0.0084849298
0.0022144897 0.051314231 -0.0084833615
0.0026738599 0.051331885 -0.0084809922
0.003075863 0.051340904 -0.0084789097
0.0034421219 0.051343102 -0.0084770164
0.003719039 0.051416896 -0.0084756967
0.004006702 0.051432986 -0.0084742717
0.0042864159 0.05140971 -0.0084728478
0.0048319586 0.051362056 -0.0084700696
0.0052070022 0.051292211 -0.0084681194
0.0055395365 0.051217761 -0.0084663769
0.0057980753 0.051333297 -0.0084652025
0.0061324546 0.051199064 -0.0084633892
0.0065104677 0.051239815 -0.0084614865
0.0070007076 0.051324096 -0.008459013
0.0073056458 0.051246978 -0.0084573356
0.0075662578 0.051265005 -0.0084559908
0.0079106046 0.05126369 -0.008454185
0.0082226172 0.051237896 -0.0084525254
0.0086239418 0.051272377 -0.0084504616
0.0093251914 0.051351175 -0.008446903
0.0097756498 0.051326033 -0.008444584
0.0099836336 0.051373281 -0.0084435754
0.010402828 0.051377308 -0.0084414482
0.01085257 0.051338278 -0.008439119
0.01115902 0.051384643 -0.0084376102
0.011562129 0.051427454 -0.0084356032
0.011775569 0.051389821 -0.0084344782
0.012099128 0.051420238 -0.0084328577
0.012380611 0.051491633 -0.0084314877
0.012838369 0.051307373 -0.0084289405
0.013165084 0.051447898 -0.0084274095
0.013594547 0.051338773 -0.0084250886
0.013954192 0.051217753 -0.0084231105
0.014211082 0.051366072 -0.0084219482
0.014506591 0.051232353 -0.0084202876
0.014941991 0.051200796 -0.0084180161
0.015432725 0.051255077 -0.0084155509
0.015685026 0.051263295 -0.0084142461
0.01598065 0.051315855 -0.0084127812
0.016311901 0.051300324 -0.0084110564
0.016595963 0.051348452 -0.008409638
0.017029535 0.051348295 -0.0084073944
0.017697725 0.05131961 -0.0084039085
0.018098634 0.051405549 -0.0084019266
0.018384797 0.051348444 -0.0084003881
-0.018581379 0.05169652 -0.0085905809
-0.0182535 0.051696673 -0.0085888989
-0.018001793 0.051724732 -0.0085876361
-0.017662624 0.051784746 -0.0085859587
-0.01736985 0.051636696 -0.0085843019
-0.0168969 0.051784698 -0.0085820314
-0.016426861 0.051804237 -0.0085796425
-0.016252197 0.051649492 -0.0085785873
-0.015862487 0.051668949 -0.008576626
-0.0154812 0.051678855 -0.0085746991
-0.01527453 0.051708139 -0.0085736793
-0.014783319 0.051561862 -0.0085710268
-0.01433417 0.051688269 -0.0085688699
-0.014015455 0.05161738 -0.008567173
-0.013776716 0.051619254 -0.0085659539
-0.013395152 0.051626891 -0.0085639628
-0.013149021 0.051637359 -0.0085626757
-0.012690296 0.051626407 -0.0085602459
-0.01224856 0.051652659 -0.0085579446
-0.011938738 0.051713791 -0.0085563762
-0.011640617 0.051710598 -0.0085548023
-0.011391332 0.051686361 -0.0085534593
-0.011031359 0.05166135 -0.0085515417
-0.010753614 0.051619269 -0.0085500795
-0.010275878 0.051720195 -0.008547755
-0.0097888177 0.051720247 -0.0085452758
-0.009543756 0.051782414 -0.008544093
-0.009212262 0.051671524 -0.0085422881
-0.0088253729 0.051745813 -0.0085403901
-0.0084788352 0.051755596 -0.0085386289
-0.0080571529 0.051691245 -0.0085363965
-0.0077129249 0.051703639 -0.0085346382
-0.0074196495 0.051705193 -0.0085331295
-0.0071444698 0.051700812 -0.0085317092
-0.0068470733 0.051607683 -0.0085300775
-0.0064759292 0.051527571 -0.0085280817
-0.0060641817 0.051587384 -0.0085260253
-0.0056290189 0.05163661 -0.0085238386
-0.0053378143 0.051636621 -0.0085223382
-0.0050466065 0.051644884 -0.0085208528
-0.0046978351 0.051670041 -0.0085190944
-0.0044715721 0.051760536 -0.0085180337
-0.003967626 0.051735152 -0.008515426
-0.003562714 0.051735379 -0.008513351
-0.0031920122 0.051685568 -0.0085113999
-0.0028864588 0.051759031 -0.0085099144
-0.0026481331 0.05175202 -0.008508686
-0.0022782115 0.051749676 -0.0085067889
-0.0018157966 0.05171499 -0.0085043944
-0.0014212625 0.051803336 -0.0085024908
-0.0010919177 0.051776975 -0.0085007995
-0.00084140594 0.051843207 -0.0084996037
-0.00053660187 0.051677976 -0.0084978892
0.00026552379 0.051551696 -0.008493701
0.00099020789 0.051728245 -0.0084901657
0.0012353843 0.051594038 -0.0084887482
0.0015678906 0.051728647 -0.008487164
0.0018941958 0.051650088 -0.0084853824
0.0023516547 0.051644858 -0.0084830001
0.0029820143 0.051712457 -0.0084797945
0.0034049386 0.051686287 -0.0084775733
0.0037203459 0.051695511 -0.0084759798
0.0041018352 0.051715333 -0.0084740892
0.0047319671 0.05175174 -0.008470973
0.0052016857 0.05175823 -0.0084686307
0.0054987739 0.051661428 -0.008467041
0.0058210301 0.051824983 -0.0084655983
0.0060548424 0.051673841 -0.0084642712
0.006528479 0.051651824 -0.0084618274
0.0070093824 0.051804945 -0.0084594805
0.007290341 0.051707037 -0.0084579047
0.0075754891 0.051688533 -0.0084563922
0.0079151345 0.05157578 -0.0084544951
0.0082013328 0.051575471 -0.0084529966
0.0084764082 0.051709715 -0.0084516983
0.0088368747 0.051581483 -0.0084496764
0.009274764 0.051615361 -0.0084474394
0.0096716871 0.051657103 -0.0084454613
0.010052076 0.051677793 -0.0084435474
0.010276552 0.051669985 -0.0084423972
0.010617008 0.051741168 -0.0084407404
0.011071186 0.051675692 -0.0084383618
0.011466903 0.05169712 -0.0084363706
0.011739064 0.051735159 -0.0084350258
0.012108613 0.051754296 -0.0084331613
0.012448342 0.051746227 -0.0084314076
0.012705104 0.05173881 -0.0084300824
0.013159379 0.051773224 -0.008427782
0.013582476 0.051744018 -0.0084255766
0.013847951 0.05162755 -0.0084240893
0.01419621 0.051768903 -0.0084224483
0.014464736 0.051736508 -0.0084210346
0.014882351 0.051635493 -0.0084187826
0.015343742 0.051562849 -0.0084163332
0.015660625 0.05154191 -0.0084146634
0.015950151 0.051590387 -0.0084132226
0.01633271 0.05172104 -0.0084113926
0.016700625 0.051718347 -0.0084094862
0.016975693 0.051618986 -0.0084079579
0.017500056 0.051625405 -0.0084052533
0.017821416 0.051681947 -0.0084036496
0.018089171 0.051712222 -0.0084022973
0.018305389 0.051736727 -0.0084012039
-0.018191805 0.052030969 -0.0085889325
-0.017963231 0.052002497 -0.0085877283
-0.017659407 0.05205778 -0.0085862279
-0.017374989 0.052056059 -0.0085847657
-0.01698876 0.052055746 -0.0085827867
-0.016605416 0.052074634 -0.0085808402
-0.016193008 0.052063014 -0.0085787158
-0.015849968 0.052088939 -0.0085769985
-0.015524199 0.052078888 -0.0085753333
-0.015281234 0.052138317 -0.0085741589
-0.014847523 0.052068833 -0.0085718827
-0.014560103 0.051862221 -0.0085702036
-0.014174214 0.052024718 -0.0085684042
-0.013724195 0.05205347 -0.0085661411
-0.013444908 0.052029584 -0.0085646631
-0.013160826 0.0519155 -0.0085630417
-0.012812044 0.051910438 -0.0085611967
-0.012362407 0.051932801 -0.0085588507
-0.011936096 0.05194978 -0.0085566193
-0.011604707 0.052022904 -0.0085549513
-0.011325062 0.051949233 -0.008553395
-0.011033964 0.052006703 -0.0085519245
-0.010719109 0.052004006 -0.0085503124
-0.010271812 0.051981505 -0.0085480101
-0.0098567717 0.052045435 -0.0085459659
-0.0095650163 0.052015856 -0.0085444506
-0.009292041 0.052063294 -0.0085431095
-0.0089738052 0.052045364 -0.0085414667
-0.0084997173 0.052073043 -0.0085390732
-0.0080808531 0.052148439 -0.0085370075
-0.0076791309 0.052132819 -0.0085349232
-0.0074271187 0.052149683 -0.0085336436
-0.0067932289 0.052026909 -0.008530248
-0.006530799 0.051913533 -0.0085287755
-0.0061243628 0.052056883 -0.0085268365
-0.0057514599 0.051918317 -0.0085247681
-0.0052880882 0.051931966 -0.0085223978
-0.0050117029 0.05188036 -0.0085209245
-0.0047265394 0.051937308 -0.0085195284
-0.0042810738 0.052006725 -0.0085173212
-0.0039005391 0.051907428 -0.0085152667
-0.003546759 0.05196438 -0.0085135158
-0.0032529552 0.05201859 -0.0085120695
-0.0029566162 0.052030347 -0.0085105663
-0.0026276086 0.052038442 -0.0085088881
-0.0023393375 0.052054446 -0.0085074296
-0.0018824174 0.05213115 -0.0085051749
-0.001441448 0.052076265 -0.008502881
-0.001079709 0.052073676 -0.008501051
-0.00082692446 0.05212361 -0.0084998263
-0.00057135429 0.052095294 -0.0084985038
-0.00020521996 0.051975913 -0.0084965266
0.00022820669 0.051998846 -0.0084943622
0.00061004667 0.052009497 -0.0084924344
0.00094935414 0.052189603 -0.0084908688
0.0012847704 0.051876538 -0.0084887911
0.0018856614 0.052059405 -0.008485863
0.0023431159 0.051969089 -0.0084833885
0.0027824866 0.051928956 -0.008481062
0.0030655067 0.051895406 -0.0084795551
0.0033190006 0.051972862 -0.0084783193
0.0036693087 0.051956687 -0.0084765088
0.0040905327 0.052000023 -0.0084744422
0.0045945831 0.052022792 -0.0084719434
0.0048619891 0.052063517 -0.008470648
0.0051442152 0.052037276 -0.0084692072
0.0054627038 0.051996674 -0.0084675709
0.0058451705 0.052055825 -0.0084657175
0.0065142554 0.052108634 -0.0084623806
0.0069799768 0.052115206 -0.0084599638
0.0072094258 0.052038629 -0.0084586814
0.0075254608 0.052197829 -0.0084571959
0.0078994995 0.051860847 -0.0084548797
0.0081773279 0.052050881 -0.008453628
0.0086220857 0.052017193 -0.0084512644
0.0090612629 0.052065637 -0.0084490199
0.0093338564 0.051900588 -0.0084474366
0.0096866395 0.051943392 -0.0084456848
0.0099889925 0.051976383 -0.0084441816
0.010424968 0.051925246 -0.008441912
0.01085886 0.051989648 -0.0084397709
0.011183113 0.051967144 -0.0084380973
0.011467539 0.052100308 -0.0084367916
0.011785224 0.051936507 -0.0084350025
0.012048226 0.052015845 -0.0084337462
0.012338313 0.052048083 -0.0084322914
0.01283906 0.052072268 -0.0084297433
0.01324512 0.052083127 -0.0084276684
0.013509864 0.052132815 -0.0084263617
0.013876105 0.052088954 -0.0084244311
0.014178805 0.052093998 -0.0084228795
0.014479746 0.052130792 -0.0084213726
0.014906321 0.051995669 -0.0084190387
0.01525588 0.052055854 -0.0084173055
0.01567021 0.052032705 -0.0084151253
0.016029112 0.051854361 -0.008413095
0.016273864 0.052174512 -0.0084121721
0.016560148 0.051899049 -0.0084104026
0.0173488 0.051926669 -0.0084063523
0.017646013 0.05203227 -0.0084049255
0.01799926 0.051955678 -0.00840302
0.018377099 0.051993705 -0.0084011089
-0.017346324 0.052346915 -0.0085849259
-0.016936094 0.052334663 -0.0085828081
-0.016404014 0.05238647 -0.0085801343
-0.016164083 0.052396774 -0.0085789161
-0.015890535 0.052298967 -0.0085774222
-0.015517678 0.052420557 -0.0085756555
-0.015275542 0.052426025 -0.0085744308
-0.014989028 0.052486349 -0.0085730357
-0.014517771 0.052472707 -0.0085706227
-0.014063936 0.05235396 -0.0085681863
-0.013712305 0.052505497 -0.0085665518
-0.01344825 0.052491471 -0.0085651837
-0.013110554 0.052380096 -0.0085632829
-0.012719912 0.052232247 -0.0085610617
-0.012231985 0.052243166 -0.0085584996
-0.011982093 0.052423578 -0.0085573774
-0.011679118 0.052268207 -0.0085556125
-0.011340782 0.05231332 -0.0085538747
-0.011044366 0.052320089 -0.0085523184
-0.010781709 0.052327875 -0.0085509727
-0.010430993 0.052303746 -0.0085491631
-0.0099621387 0.052383307 -0.008546859
-0.0095711034 0.052372411 -0.0085448567
-0.0092451684 0.052402124 -0.0085432297
-0.0089704618 0.052356396 -0.0085417796
-0.0085101398 0.052394696 -0.0085394653
-0.0080113709 0.052432898 -0.0085369525
-0.0077384347 0.052412685 -0.0085355267
-0.0074468367 0.052452452 -0.0085340682
-0.0071308166 0.052302573 -0.008532281
-0.0068468181 0.052428667 -0.008530953
-0.0064175185 0.052358005 -0.0085286666
-0.0059853229 0.052515939 -0.0085266111
-0.0056575849 0.052364994 -0.0085247625
-0.0053955782 0.052386791 -0.0085234372
-0.0050570774 0.05226716 -0.0085215699
-0.004774469 0.052401897 -0.0085202679
-0.004440763 0.052325349 -0.0085184788
-0.0039454829 0.052263442 -0.0085158776
-0.0035862261 0.052406777 -0.008514192
-0.003216425 0.052276745 -0.008512157
-0.0029198723 0.052352909 -0.0085107218
-0.0026312359 0.052365102 -0.008509255
-0.0023620888 0.052303061 -0.0085078115
-0.0019084308 0.052378256 -0.0085055707
-0.0014322586 0.052386571 -0.0085031623
-0.0011304831 0.052413888 -0.0085016647
-0.00085896184 0.052398704 -0.0085002771
-0.000405628 0.052415397 -0.0084980037
4.3080072e-05 0.052435394 -0.0084957555
0.00037266477 0.0524179 -0.0084940726
0.00063861837 0.052461404 -0.0084927659
0.00091376156 0.052470069 -0.0084913503
0.0012395026 0.052327324 -0.0084895073
0.0015474719 0.052362677 -0.0084879436
0.0018127665 0.052548844 -0.0084867636
0.0022761594 0.052344464 -0.0084841354
0.0027859616 0.052439913 -0.0084815882
0.0030320105 0.052256592 -0.0084801139
0.0033672827 0.05231113 -0.008478431
0.0036231235 0.052279074 -0.0084770834
0.0040657292 0.05234237 -0.0084749227
0.0045373258 0.052307468 -0.0084725255
0.0048372322 0.052343093 -0.0084710615
0.0051149931 0.052337497 -0.0084696645
0.0054960628 0.0523264 -0.008467746
0.0057107573 0.052400872 -0.0084667485
0.0061796647 0.052406315 -0.0084643979
0.0065888562 0.052402765 -0.008462307
0.0069606109 0.052461464 -0.0084604342
0.0072390558 0.052457787 -0.0084589748
0.00758023 0.05247882 -0.0084572099
0.0078751249 0.052340936 -0.0084555196
0.0081441235 0.052523922 -0.0084543061
0.0086630601 0.052390087 -0.0084514469
0.0090323891 0.052516144 -0.0084496485
0.0093700718 0.052266538 -0.0084476378
0.0096196402 0.052392561 -0.0084464978
0.0099532306 0.052250236 -0.008444652
0.01045531 0.052298039 -0.0084421467
0.010893744 0.052306321 -0.0084399264
0.011154197 0.052239429 -0.0084385322
0.011437112 0.052305065 -0.0084371613
0.011781565 0.052369557 -0.0084354766
0.012044682 0.052332591 -0.0084340973
0.012523755 0.052361738 -0.0084316693
0.01313831 0.052385915 -0.0084285373
0.013541335 0.052423395 -0.008426507
0.013899535 0.052410357 -0.0084246499
0.014200933 0.052455436 -0.0084231505
0.014454313 0.0524281 -0.0084218187
0.014913796 0.052411165 -0.0084194392
0.015355515 0.052422673 -0.008417177
0.015637375 0.052482866 -0.0084157679
0.016011825 0.052349266 -0.0084137041
0.016182654 0.052454114 -0.0084129376
0.016670926 0.052400026 -0.0084103569
0.016983949 0.0522957 -0.0084086284
0.017476328 0.052376181 -0.008406166
0.017812682 0.05227631 -0.008404321
0.01807595 0.052220635 -0.0084028998
0.018384676 0.052231126 -0.0084013194
-0.016623788 0.052698482 -0.008581588
-0.016177077 0.052698832 -0.0085792979
-0.015888233 0.052662253 -0.0085777892
-0.015552387 0.052710392 -0.0085761324
-0.015244447 0.052732803 -0.008574591
-0.014850896 0.052767854 -0.0085726269
-0.014374199 0.052789137 -0.0085702185
-0.014080005 0.052708 -0.0085686361
-0.013780423 0.052782089 -0.0085671861
-0.013495565 0.052819215 -0.0085657714
-0.013181802 0.052808948 -0.0085641257
-0.012727131 0.052707002 -0.0085616168
-0.012271856 0.052721132 -0.0085592298
-0.011919267 0.052889932 -0.0085575553
-0.011705011 0.052716136 -0.0085562356
-0.011368711 0.05256746 -0.0085543003
-0.010938119 0.052768704 -0.0085522495
-0.01061148 0.052642405 -0.0085504381
-0.01014269 0.052616686 -0.008548025
-0.0098977014 0.052653208 -0.0085468171
-0.0095367301 0.052654177 -0.0085449815
-0.0092961295 0.052636016 -0.0085437363
-0.0089109074 0.052726708 -0.0085418662
-0.0086361598 0.05270363 -0.0085404366
-0.0081944298 0.052718025 -0.008538194
-0.0078326948 0.052733868 -0.0085363546
-0.0075123403 0.052761953 -0.0085347351
-0.0071482686 0.05281879 -0.0085329218
-0.0068536578 0.052786957 -0.0085313711
-0.0064412877 0.052829262 -0.0085292924
-0.0059451144 0.052855156 -0.0085267667
-0.0057038376 0.052782845 -0.0085254451
-0.0053935479 0.052840792 -0.0085239103
-0.0050638998 0.052701574 -0.0085220691
-0.0046979859 0.052887153 -0.0085203974
-0.0043187514 0.05272514 -0.0085182823
-0.0039706514 0.052694593 -0.0085164681
-0.0032585207 0.052727502 -0.0085128555
-0.0029373113 0.052630957 -0.0085111083
-0.0027178244 0.052632555 -0.0085099861
-0.0022190067 0.052632496 -0.0085074306
-0.001754889 0.052689772 -0.0085051181
-0.0014448133 0.052679144 -0.0085035348
-0.001185053 0.052673616 -0.0085022151
-0.00089686224 0.052733723 -0.0085008219
-0.00041822717 0.052732799 -0.0084984014
1.5030149e-05 0.05271326 -0.0084961904
0.000327899 0.052801907 -0.0084947031
0.00061028718 0.052787904 -0.0084932558
0.00087895454 0.05277288 -0.0084918495
0.0012087612 0.052787069 -0.0084901564
0.0015393207 0.052772045 -0.0084884223
0.001972829 0.052829962 -0.008486229
0.0024183593 0.052729882 -0.0084838066
0.0027161401 0.052885793 -0.0084824245
0.0030848733 0.052737329 -0.0084803496
0.0033588773 0.052579854 -0.0084787598
0.003673397 0.052567061 -0.0084771309
0.0039501325 0.052601989 -0.0084757693
0.0044411076 0.052714158 -0.0084734298
0.0048606913 0.052611824 -0.0084712235
0.0051219258 0.052721836 -0.0084700277
0.0054449979 0.052643009 -0.0084683308
0.0057954509 0.052674484 -0.0084666088
0.0061630663 0.05274523 -0.0084648319
0.0066121221 0.052731924 -0.0084625306
0.0069539337 0.052717499 -0.0084607424
0.0073296516 0.052759107 -0.0084588192
0.0075414744 0.052747421 -0.0084576998
0.007820772 0.052765138 -0.0084562562
0.0082611786 0.052800678 -0.0084539885
0.0087754671 0.052765027 -0.0084512597
0.0089976061 0.05281657 -0.0084501514
0.0093235588 0.052695099 -0.0084483325
0.0099278074 0.052695747 -0.0084452489
0.010384395 0.052698623 -0.008442929
0.010811569 0.05258042 -0.0084406333
0.01115646 0.052727062 -0.0084390324
0.011390657 0.052614976 -0.0084377239
0.011766889 0.052556127 -0.0084357467
0.011986763 0.052618064 -0.0084346915
0.012487693 0.052678872 -0.0084321909
0.012913433 0.052679446 -0.0084300032
0.013149939 0.052604772 -0.0084287087
0.013498318 0.052710958 -0.0084270313
0.013815261 0.052688405 -0.0084253764
0.014145179 0.05271801 -0.008423714
0.014561993 0.052725453 -0.0084215794
0.015052185 0.052729942 -0.0084190639
0.015374991 0.052766863 -0.0084174387
0.015659915 0.052762058 -0.0084159402
0.015952516 0.052752912 -0.0084144315
0.016232299 0.052828323 -0.0084130745
0.016708292 0.0528474 -0.0084106354
0.017144952 0.052685797 -0.0084082056
0.017422616 0.052882966 -0.0084069772
0.017725999 0.052582134 -0.0084050903
0.018025972 0.052731354 -0.0084036971
0.01837793 0.052747216 -0.0084018987
0.018615797 0.05274586 -0.0084006758
-0.016265785 0.05295733 -0.0085800225
-0.015914684 0.05298768 -0.0085782623
-0.015457783 0.053011458 -0.0085759647
-0.01483136 0.053073272 -0.0085728448
-0.014383856 0.05309223 -0.0085705845
-0.014086781 0.053118862 -0.0085690971
-0.013824432 0.053109765 -0.0085677514
-0.013468543 0.053169373 -0.0085660014
-0.013123475 0.053230494 -0.0085642776
-0.01274011 0.053125154 -0.0085621402
-0.01220666 0.053157941 -0.008559362
-0.0120003 0.053190641 -0.0085583087
-0.011682241 0.053185072 -0.0085566267
-0.011408405 0.053047102 -0.0085550314
-0.011069935 0.053075414 -0.008553274
-0.010610931 0.05310132 -0.0085509224
-0.010194595 0.052974034 -0.0085486677
-0.0099215191 0.052935865 -0.0085472371
-0.0095916968 0.053130973 -0.0085457638
-0.0093203727 0.052948691 -0.0085441908
-0.0090079149 0.05300403 -0.008542655
-0.0085199438 0.052976511 -0.0085401312
-0.0080545656 0.053023048 -0.0085378019
-0.007746934 0.053038724 -0.0085362382
-0.0075343568 0.053003777 -0.0085351057
-0.0072180294 0.053047724 -0.0085335253
-0.0068406286 0.053083651 -0.0085316207
-0.0064239483 0.053079758 -0.0085294712
-0.0060212677 0.053140312 -0.0085274624
-0.0056963596 0.053145979 -0.0085257962
-0.0054327855 0.053123474 -0.0085244142
-0.0050855926 0.053161439 -0.0085226716
-0.0046556522 0.053032946 -0.008520335
-0.0043461425 0.053134765 -0.0085188616
-0.0038864436 0.053211842 -0.0085165892
-0.003560598 0.05303371 -0.0085147303
-0.0032328181 0.053173088 -0.008513201
-0.0029970892 0.053081941 -0.0085118953
-0.0026940901 0.052944131 -0.0085101966
-0.0022789056 0.053023834 -0.0085081579
-0.0017410258 0.052977178 -0.0085053546
-0.0015175398 0.052983761 -0.0085042231
-0.0011898903 0.052969769 -0.0085025514
-0.00086470577 0.052987486 -0.0085009262
-0.00056242477 0.053010508 -0.008499423
-0.00014125824 0.053044993 -0.0084973313
0.00032829517 0.053013656 -0.0084949248
0.00062437437 0.053052332 -0.0084934607
0.00091600721 0.053051524 -0.0084919538
0.0012603016 0.053095255 -0.0084902151
0.0016627342 0.053124998 -0.0084881559
0.0021456608 0.053132229 -0.0084856534
