ply
format ascii 1.0
comment VCGLIB generated
element vertex 1545
property float x
property float y
property float z
element face 0
property list uchar int vertex_indices
end_header
0.0195754 -0.0140464 0.43388 
0.0185636 -0.0147821 0.433528 
0.0183196 -0.0150352 0.433645 
0.0188177 -0.014537 0.433645 
0.0185624 -0.0145321 0.433498 
0.0188203 -0.0142899 0.433704 
0.0183184 -0.0147851 0.433616 
0.0190745 -0.0142937 0.433821 
0.0193184 -0.0140407 0.433704 
0.0190784 -0.0140474 0.433909 
0.0180743 -0.0150382 0.433733 
0.0228548 -0.0155691 0.434643 
0.022861 -0.0153236 0.43476 
0.0233414 -0.0155607 0.434408 
0.0238178 -0.0167924 0.433997 
0.0238194 -0.0165442 0.434027 
0.024067 -0.0167924 0.433997 
0.0235574 -0.0162861 0.433792 
0.023821 -0.016296 0.434056 
0.0240687 -0.0165442 0.434027 
0.0235622 -0.0160402 0.43388 
0.0203284 -0.0142995 0.433997 
0.0200724 -0.0142947 0.43385 
0.0206125 -0.0143237 0.434731 
0.0198192 -0.0140426 0.433762 
0.0195754 -0.0137972 0.43388 
0.0193158 -0.0137897 0.433645 
0.0185636 -0.0142841 0.433528 
0.0183196 -0.014537 0.433645 
0.0180743 -0.0147891 0.433733 
0.018819 -0.0140398 0.433674 
0.0183209 -0.0142889 0.433674 
0.0185649 -0.014036 0.433557 
0.0188215 -0.0137925 0.433733 
0.0190616 -0.013786 0.433528 
0.0233556 -0.0153205 0.434672 
0.0235686 -0.015546 0.433997 
0.0240703 -0.016296 0.434056 
0.0243196 -0.0167947 0.434056 
0.0243212 -0.0165465 0.434085 
0.0238065 -0.0160369 0.433792 
0.0240589 -0.0160391 0.43385 
0.0243212 -0.0162971 0.434085 
0.0235622 -0.015791 0.43388 
0.023813 -0.015792 0.433909 
0.0203367 -0.0140559 0.434173 
0.0200629 -0.0140388 0.433645 
0.0206097 -0.0140721 0.434672 
0.0198072 -0.0137851 0.433498 
0.0200656 -0.0137916 0.433704 
0.0195688 -0.0135434 0.433733 
0.0193171 -0.0135416 0.433674 
0.0193184 -0.0132934 0.433704 
0.0190616 -0.013537 0.433528 
0.0183221 -0.0140407 0.433704 
0.0185662 -0.0137879 0.433586 
0.0180902 -0.0145527 0.434115 
0.0178264 -0.0145409 0.433762 
0.0188215 -0.0135434 0.433733 
0.0180902 -0.0143034 0.434115 
0.0183234 -0.0137925 0.433733 
0.0185674 -0.0135397 0.433616 
0.0188215 -0.0132943 0.433733 
0.0190629 -0.0132889 0.433557 
0.0233524 -0.0150688 0.434614 
0.024067 -0.015546 0.433997 
0.0238146 -0.0155439 0.433939 
0.0235654 -0.0152946 0.433939 
0.0238178 -0.0152967 0.433997 
0.0235686 -0.0150474 0.433997 
0.0243212 -0.0160478 0.434085 
0.0245705 -0.0165465 0.434085 
0.0245771 -0.0168004 0.434203 
0.0245738 -0.0162993 0.434144 
0.0240654 -0.0157942 0.433968 
0.0243212 -0.0157985 0.434085 
0.0245722 -0.0160489 0.434115 
0.0203422 -0.0138103 0.434291 
0.0203381 -0.0135581 0.434203 
0.0200643 -0.0135416 0.433674 
0.0206153 -0.0138261 0.43479 
0.0198072 -0.0132871 0.433498 
0.0198072 -0.0135361 0.433498 
0.0200656 -0.0132934 0.433704 
0.0195675 -0.0132934 0.433704 
0.0193184 -0.0130443 0.433704 
0.0193197 -0.012796 0.433733 
0.0195741 -0.0130487 0.43385 
0.0190629 -0.0130398 0.433557 
0.0180902 -0.014054 0.434115 
0.0183221 -0.0135425 0.433704 
0.0185674 -0.0132907 0.433616 
0.0178276 -0.0140436 0.433792 
0.0178264 -0.0142918 0.433762 
0.0180926 -0.0138065 0.434173 
0.0183234 -0.0132943 0.433733 
0.0178276 -0.0137944 0.433792 
0.0185662 -0.0130407 0.433586 
0.0188203 -0.0130443 0.433704 
0.0243245 -0.0155512 0.434144 
0.0245622 -0.0155439 0.433939 
0.0240703 -0.0152987 0.434056 
0.0243278 -0.0153039 0.434203 
0.0238226 -0.0150504 0.434085 
0.0240752 -0.0150525 0.434144 
0.0238242 -0.0148021 0.434115 
0.0235765 -0.0148031 0.434144 
0.0245738 -0.0158006 0.434144 
0.0248265 -0.016551 0.434203 
0.0248265 -0.0168004 0.434203 
0.0248248 -0.0163004 0.434173 
0.0248265 -0.0160521 0.434203 
0.0248248 -0.0158017 0.434173 
0.0203353 -0.0133069 0.434144 
0.0200643 -0.0130434 0.433674 
0.0206139 -0.0135755 0.43476 
0.0198072 -0.0127891 0.433498 
0.0198085 -0.013039 0.433528 
0.0200643 -0.0127943 0.433674 
0.0195741 -0.0127995 0.43385 
0.0193184 -0.012546 0.433704 
0.0190771 -0.0128003 0.43388 
0.0195741 -0.0125503 0.43385 
0.0190758 -0.0125503 0.43385 
0.0193184 -0.0122969 0.433704 
0.018819 -0.0127943 0.433674 
0.0183234 -0.0130451 0.433733 
0.0178288 -0.0135462 0.433821 
0.0180938 -0.0133087 0.434203 
0.0180938 -0.0135581 0.434203 
0.0178288 -0.013297 0.433821 
0.0183209 -0.0127943 0.433674 
0.0185649 -0.0127908 0.433557 
0.0185649 -0.0125418 0.433557 
0.018819 -0.0125452 0.433674 
0.0248231 -0.0155512 0.434144 
0.0245688 -0.0152987 0.434056 
0.0247963 -0.0152853 0.433674 
0.024336 -0.0150596 0.434349 
0.0245738 -0.0150525 0.434144 
0.0240833 -0.0148081 0.434291 
0.024336 -0.0148101 0.434349 
0.0240817 -0.0145577 0.434261 
0.0238275 -0.0145547 0.434173 
0.0235813 -0.0145567 0.434232 
0.0250742 -0.0163004 0.434173 
0.0250759 -0.016551 0.434203 
0.0250759 -0.0160521 0.434203 
0.0250742 -0.0158017 0.434173 
0.0250725 -0.0155512 0.434144 
0.0203326 -0.0130557 0.434085 
0.0203271 -0.0128029 0.433968 
0.0200643 -0.0125452 0.433674 
0.0198139 -0.0125443 0.433645 
0.0195754 -0.0123019 0.43388 
0.0190771 -0.0123019 0.43388 
0.0198259 -0.0123027 0.433909 
0.0190771 -0.0120527 0.43388 
0.0188203 -0.0122969 0.433704 
0.0195767 -0.0120535 0.433909 
0.0193367 -0.0120592 0.434115 
0.0178288 -0.0130478 0.433821 
0.0180938 -0.0130593 0.434203 
0.0178288 -0.0127986 0.433821 
0.0183196 -0.0122952 0.433645 
0.0183209 -0.0125452 0.433674 
0.0185662 -0.0122936 0.433586 
0.0185662 -0.0120445 0.433586 
0.0250708 -0.0153008 0.434115 
0.0247997 -0.0150382 0.433733 
0.0245722 -0.0148021 0.434115 
0.0243377 -0.0145616 0.434379 
0.0250708 -0.0150515 0.434115 
0.0245755 -0.0145547 0.434173 
0.0238339 -0.0143092 0.434291 
0.0240963 -0.0143169 0.434526 
0.0243459 -0.0143169 0.434526 
0.0235988 -0.0143179 0.434555 
0.0253218 -0.0153019 0.434144 
0.0203298 -0.0125554 0.434027 
0.0203271 -0.0123044 0.433968 
0.0200711 -0.0123002 0.433821 
0.0206222 -0.0130813 0.434937 
0.0198326 -0.0120576 0.434056 
0.0195767 -0.0118042 0.433909 
0.0188215 -0.0120486 0.433733 
0.0200846 -0.0120592 0.434115 
0.0193354 -0.011809 0.434085 
0.0190797 -0.011805 0.433939 
0.0188241 -0.0118011 0.433792 
0.01983 -0.0118066 0.433997 
0.0178288 -0.0125494 0.433821 
0.0180914 -0.0128081 0.434144 
0.0178288 -0.0123002 0.433821 
0.0180889 -0.0125571 0.434085 
0.0183221 -0.0120478 0.433704 
0.0180743 -0.0122977 0.433733 
0.0180755 -0.0120494 0.433762 
0.0183209 -0.0117979 0.433674 
0.0185687 -0.0117971 0.433645 
0.0253218 -0.0150525 0.434144 
0.0248013 -0.0147901 0.433762 
0.025047 -0.0147881 0.433704 
0.024803 -0.0145419 0.433792 
0.0245722 -0.0143034 0.434115 
0.0253184 -0.0148011 0.434085 
0.0248047 -0.0142937 0.433821 
0.0238484 -0.0140683 0.434555 
0.0240915 -0.0140645 0.434438 
0.0243442 -0.0140664 0.434496 
0.0255711 -0.0150525 0.434144 
0.0203339 -0.0120592 0.434115 
0.0205958 -0.012316 0.434379 
0.0206097 -0.0128237 0.434672 
0.0198326 -0.0115589 0.434056 
0.0200914 -0.0118138 0.434261 
0.0193354 -0.0115597 0.434085 
0.0195794 -0.0115566 0.433968 
0.0203381 -0.0118122 0.434203 
0.0193354 -0.0113104 0.434085 
0.0190822 -0.0115574 0.433997 
0.0190809 -0.0113073 0.433968 
0.0188254 -0.0115527 0.433821 
0.0185699 -0.0115488 0.433674 
0.0200901 -0.0115636 0.434232 
0.0183221 -0.0115495 0.433704 
0.0180755 -0.0118003 0.433762 
0.0183221 -0.0113004 0.433704 
0.0185699 -0.0112997 0.433674 
0.0255694 -0.0148021 0.434115 
0.0250454 -0.014538 0.433674 
0.0250487 -0.0142908 0.433733 
0.0248047 -0.0140445 0.433821 
0.0245722 -0.014054 0.434115 
0.0255677 -0.0145518 0.434085 
0.0253167 -0.0145508 0.434056 
0.0250504 -0.0140426 0.433762 
0.0248064 -0.0137963 0.43385 
0.0240947 -0.0138168 0.434496 
0.023842 -0.0138149 0.434438 
0.0240915 -0.0135654 0.434438 
0.0243426 -0.0138159 0.434467 
0.0245788 -0.0138084 0.434232 
0.0243459 -0.0135682 0.434526 
0.0205944 -0.0118162 0.434349 
0.0205972 -0.0120673 0.434408 
0.0206097 -0.012574 0.434672 
0.019834 -0.0113104 0.434085 
0.0200901 -0.0113142 0.434232 
0.0203449 -0.0115667 0.434349 
0.0193354 -0.011061 0.434085 
0.0195675 -0.0113004 0.433704 
0.0205999 -0.0115699 0.434467 
0.0195714 -0.0110535 0.433792 
0.0193354 -0.0108117 0.434085 
0.0190848 -0.0110603 0.434056 
0.0188279 -0.011305 0.43388 
0.0188279 -0.0110558 0.43388 
0.0185699 -0.0110505 0.433674 
0.0203436 -0.0113165 0.43432 
0.0200901 -0.0110648 0.434232 
0.025817 -0.0145518 0.434085 
0.0252995 -0.0140426 0.433762 
0.0253149 -0.0143005 0.434027 
0.0250521 -0.0137944 0.433792 
0.0248047 -0.0135462 0.433821 
0.0258135 -0.0143005 0.434027 
0.0255642 -0.0143005 0.434027 
0.0250521 -0.0135452 0.433792 
0.0253013 -0.0137944 0.433792 
0.0238436 -0.0135663 0.434467 
0.023842 -0.0133159 0.434438 
0.0240898 -0.013315 0.434408 
0.0243442 -0.0133177 0.434496 
0.0245805 -0.0135599 0.434261 
0.0208523 -0.0115714 0.434526 
0.0198219 -0.0110543 0.433821 
0.0203449 -0.0110677 0.434349 
0.0206013 -0.0113211 0.434496 
0.0195701 -0.0108036 0.433762 
0.0190848 -0.0108109 0.434056 
0.0208523 -0.0113218 0.434526 
0.0208649 -0.0118282 0.43479 
0.0198233 -0.0108058 0.43385 
0.0195688 -0.0105538 0.433733 
0.0193341 -0.0105616 0.434056 
0.0190848 -0.0105616 0.434056 
0.0188279 -0.0108066 0.43388 
0.0205972 -0.0110692 0.434408 
0.0203449 -0.0108183 0.434349 
0.0200819 -0.0108109 0.434056 
0.0255625 -0.0140502 0.433997 
0.025303 -0.0135462 0.433821 
0.0255607 -0.0138 0.433968 
0.0250521 -0.0132961 0.433792 
0.0245738 -0.0133069 0.434144 
0.0248047 -0.013297 0.433821 
0.0248064 -0.0130487 0.43385 
0.0258135 -0.0140512 0.434027 
0.0250521 -0.0130469 0.433792 
0.0253013 -0.0132961 0.433792 
0.025559 -0.0135498 0.433939 
0.0238436 -0.0128176 0.434467 
0.0240898 -0.0130654 0.434408 
0.023842 -0.0130663 0.434438 
0.0243426 -0.0130672 0.434467 
0.0245788 -0.0130601 0.434232 
0.0211061 -0.0113241 0.434614 
0.0211218 -0.0115824 0.434937 
0.0198219 -0.0105559 0.433821 
0.020593 -0.0108175 0.43432 
0.020848 -0.01107 0.434438 
0.0195701 -0.0103053 0.433762 
0.0210975 -0.01107 0.434438 
0.0208678 -0.0120796 0.434848 
0.0198219 -0.0103067 0.433821 
0.0200792 -0.0105602 0.433997 
0.019338 -0.0103144 0.434144 
0.0208466 -0.0108197 0.434408 
0.0206027 -0.0105731 0.434526 
0.0203477 -0.0105702 0.434408 
0.02581 -0.0138 0.433968 
0.025559 -0.0133006 0.433939 
0.02581 -0.0135507 0.433968 
0.0250521 -0.0127977 0.433792 
0.0253013 -0.0130469 0.433792 
0.0245738 -0.0128081 0.434144 
0.024803 -0.0127977 0.433792 
0.0253013 -0.0127977 0.433792 
0.0255573 -0.0130504 0.433909 
0.0258135 -0.0133033 0.434027 
0.0240882 -0.0128151 0.434379 
0.023602 -0.0125723 0.434614 
0.0238403 -0.0125664 0.434408 
0.0240817 -0.0125621 0.434261 
0.0243393 -0.0128159 0.434408 
0.0213499 -0.0110715 0.434496 
0.02136 -0.0113264 0.434702 
0.0200778 -0.0103102 0.433968 
0.0208396 -0.0105666 0.434261 
0.0210933 -0.0108183 0.434349 
0.0195887 -0.0100657 0.434173 
0.0215951 -0.0110692 0.434408 
0.0213456 -0.0108197 0.434408 
0.0198407 -0.0100671 0.434232 
0.0200778 -0.0100609 0.433968 
0.0203408 -0.0103172 0.434261 
0.019338 -0.010065 0.434144 
0.0205972 -0.0103207 0.434408 
0.0258152 -0.0130548 0.434056 
0.0260627 -0.0133033 0.434027 
0.0247997 -0.0125469 0.433733 
0.0250487 -0.0125469 0.433733 
0.0252995 -0.0125477 0.433762 
0.0255556 -0.0128003 0.43388 
0.0245722 -0.0125579 0.434115 
0.0243377 -0.0125655 0.434379 
0.0255573 -0.012552 0.433909 
0.0253013 -0.0122994 0.433792 
0.0258117 -0.0128038 0.433997 
0.0260645 -0.0130548 0.434056 
0.0238355 -0.0123144 0.43432 
0.0235957 -0.0123194 0.434496 
0.0240784 -0.012311 0.434203 
0.0243327 -0.0123135 0.434291 
0.021846 -0.01107 0.434438 
0.0216126 -0.0113279 0.43476 
0.0215951 -0.0108197 0.434408 
0.0203422 -0.0100684 0.434291 
0.0208283 -0.0103116 0.434027 
0.0210762 -0.0105602 0.433997 
0.0210733 -0.0103095 0.433939 
0.0213297 -0.0105623 0.434085 
0.0198407 -0.00981764 0.434232 
0.0195887 -0.00981631 0.434173 
0.0218416 -0.0108183 0.434349 
0.0215951 -0.0105702 0.434408 
0.0200914 -0.00981831 0.434261 
0.0203408 -0.00981831 0.434261 
0.0205902 -0.0100677 0.434261 
0.0260627 -0.0128047 0.434027 
0.0250454 -0.0122961 0.433674 
0.0247997 -0.0122977 0.433733 
0.0245688 -0.0123069 0.434056 
0.0255625 -0.0123052 0.433997 
0.0258135 -0.0125554 0.434027 
0.0258117 -0.0123052 0.433997 
0.0255659 -0.0120576 0.434056 
0.0253149 -0.0120567 0.434027 
0.0250437 -0.0120461 0.433645 
0.0260627 -0.0125554 0.434027 
0.0238146 -0.0120543 0.433939 
0.0235877 -0.0120657 0.434349 
0.0240719 -0.0120584 0.434085 
0.0233446 -0.012069 0.434467 
0.0243278 -0.0120616 0.434203 
0.0245639 -0.0120551 0.433968 
0.0220985 -0.0110715 0.434496 
0.022345 -0.01107 0.434438 
0.0220895 -0.0108175 0.43432 
0.0218504 -0.0105731 0.434526 
0.0205902 -0.00981831 0.434261 
0.0208241 -0.0100603 0.433939 
0.0210705 -0.0100589 0.43388 
0.0213312 -0.0103137 0.434115 
0.0213297 -0.0100637 0.434085 
0.0215921 -0.0103193 0.434349 
0.0200914 -0.00956887 0.434261 
0.0220925 -0.0105695 0.434379 
0.0218475 -0.0103221 0.434467 
0.0203408 -0.00956887 0.434261 
0.0208382 -0.00981764 0.434232 
0.0205874 -0.00956757 0.434203 
0.0260627 -0.012306 0.434027 
0.0247963 -0.012047 0.433674 
0.0255642 -0.0118074 0.434027 
0.0258152 -0.0120576 0.434056 
0.0258135 -0.0118074 0.434027 
0.0253132 -0.0118066 0.433997 
0.0253149 -0.0115581 0.434027 
0.0247946 -0.0117971 0.433645 
0.025042 -0.0117963 0.433616 
0.024067 -0.0118066 0.433997 
0.0238097 -0.0118026 0.43385 
0.0235574 -0.0118011 0.433792 
0.0233382 -0.0118162 0.434349 
0.0243245 -0.0118106 0.434144 
0.0231013 -0.0118226 0.434584 
0.0245639 -0.0118058 0.433968 
0.022351 -0.0113226 0.434555 
0.0221134 -0.0113287 0.43479 
0.0226006 -0.0113226 0.434555 
0.0225914 -0.0110685 0.434379 
0.0223254 -0.0108109 0.434056 
0.0223208 -0.0105595 0.433968 
0.0220821 -0.0103151 0.434173 
0.0208368 -0.00956757 0.434203 
0.0210676 -0.00980835 0.433821 
0.021324 -0.00981167 0.433968 
0.0215863 -0.0100671 0.434232 
0.0215805 -0.00981499 0.434115 
0.0218386 -0.0100684 0.434291 
0.0205874 -0.00931817 0.434203 
0.0210833 -0.00956628 0.434144 
0.0208368 -0.00931817 0.434203 
0.0255642 -0.0113088 0.434027 
0.0258135 -0.0115581 0.434027 
0.0255642 -0.0115581 0.434027 
0.0253149 -0.0113088 0.434027 
0.0250657 -0.0115581 0.434027 
0.025064 -0.0113081 0.433997 
0.0253149 -0.0110595 0.434027 
0.0247929 -0.0115472 0.433616 
0.0245572 -0.0115534 0.43385 
0.0240622 -0.011555 0.433909 
0.0238081 -0.0115527 0.433821 
0.0243196 -0.0115589 0.434056 
0.0235558 -0.0115511 0.433762 
0.0235574 -0.0113027 0.433792 
0.0233162 -0.0115558 0.433939 
0.0230919 -0.0115683 0.434408 
0.0228532 -0.0115738 0.434614 
0.0226159 -0.01158 0.434848 
0.0228502 -0.011073 0.434555 
0.0228424 -0.0113188 0.434408 
0.0228394 -0.0108183 0.434349 
0.0225716 -0.0108095 0.433997 
0.0225716 -0.0105602 0.433997 
0.0223178 -0.0103088 0.433909 
0.0225747 -0.0103123 0.434056 
0.0223178 -0.0100596 0.433909 
0.0220776 -0.0100637 0.434085 
0.0210833 -0.00931691 0.434144 
0.0213225 -0.00956175 0.433939 
0.0215834 -0.00956692 0.434173 
0.0218357 -0.00981764 0.434232 
0.0218372 -0.00956887 0.434261 
0.0215819 -0.00931691 0.434144 
0.0220806 -0.00981565 0.434144 
0.0213225 -0.0093125 0.433939 
0.0253167 -0.0108109 0.434056 
0.0250657 -0.0110595 0.434027 
0.0247913 -0.0112974 0.433586 
0.0250657 -0.0108102 0.434027 
0.0245572 -0.0113042 0.43385 
0.0247913 -0.0110483 0.433586 
0.0243163 -0.0113081 0.433997 
0.0240605 -0.011305 0.43388 
0.0238065 -0.0113027 0.433792 
0.023324 -0.0113104 0.434085 
0.0235526 -0.0110513 0.433704 
0.0233209 -0.0110595 0.434027 
0.0238033 -0.011052 0.433733 
0.0231106 -0.0113279 0.43476 
0.0230982 -0.0110722 0.434526 
0.0230904 -0.010819 0.434379 
0.0228316 -0.0105652 0.434203 
0.0230888 -0.0105688 0.434349 
0.0228301 -0.0103151 0.434173 
0.0225701 -0.0100609 0.433968 
0.0228301 -0.0100657 0.434173 
0.0223178 -0.0095611 0.433909 
0.0223224 -0.00981233 0.433997 
0.0225701 -0.00981167 0.433968 
0.0220791 -0.00956563 0.434115 
0.0218313 -0.00931691 0.434144 
0.0220791 -0.00931628 0.434115 
0.0218313 -0.00906753 0.434144 
0.0215819 -0.00906753 0.434144 
0.0250657 -0.0105609 0.434027 
0.0248148 -0.0108095 0.433997 
0.0245555 -0.0110543 0.433821 
0.0248148 -0.0105602 0.433997 
0.0243113 -0.0110565 0.433909 
0.0245539 -0.0108044 0.433792 
0.0240589 -0.011055 0.43385 
0.0235542 -0.0105538 0.433733 
0.0238001 -0.0108014 0.433674 
0.0233177 -0.0108088 0.433968 
0.0235542 -0.0108029 0.433733 
0.024054 -0.0108036 0.433762 
0.0230841 -0.0103172 0.434261 
0.0233209 -0.0103116 0.434027 
0.0233193 -0.0105602 0.433997 
0.0230872 -0.0100691 0.43432 
0.0228255 -0.00981432 0.434085 
0.023081 -0.00981698 0.434203 
0.0225685 -0.00956175 0.433939 
0.0225762 -0.00931565 0.434085 
0.0223269 -0.00931565 0.434085 
0.0228224 -0.00956369 0.434027 
0.0220791 -0.00906692 0.434115 
0.0223269 -0.00906631 0.434085 
0.0248164 -0.0103116 0.434027 
0.0245655 -0.0105602 0.433997 
0.0243113 -0.0108073 0.433909 
0.0243163 -0.0105602 0.433997 
0.0248164 -0.0100623 0.434027 
0.0245672 -0.0103116 0.434027 
0.0240524 -0.0105538 0.433733 
0.0238001 -0.0105523 0.433674 
0.0235542 -0.0103046 0.433733 
0.0238001 -0.0103032 0.433674 
0.0235542 -0.0100555 0.433733 
0.0240524 -0.0103046 0.433733 
0.0233225 -0.010063 0.434056 
0.0233225 -0.00981366 0.434056 
0.0230732 -0.00956434 0.434056 
0.0228255 -0.00931565 0.434085 
0.0233209 -0.00956369 0.434027 
0.0230732 -0.00931502 0.434056 
0.0225762 -0.00906631 0.434085 
0.0228255 -0.00906631 0.434085 
0.0245672 -0.0100623 0.434027 
0.0243163 -0.0103109 0.433997 
0.0243179 -0.0100623 0.434027 
0.0245672 -0.009813 0.434027 
0.0238033 -0.0100555 0.433733 
0.0235702 -0.009813 0.434027 
0.0238194 -0.009813 0.434027 
0.0240687 -0.0100623 0.434027 
0.0235702 -0.00956369 0.434027 
0.0233209 -0.00931439 0.434027 
0.0238194 -0.00956369 0.434027 
0.0235702 -0.00931439 0.434027 
0.0243179 -0.009813 0.434027 
0.0240687 -0.009813 0.434027 
0.0240687 -0.00956369 0.434027 
0.0324794 -0.0169 0.443361 
0.0322269 -0.0166465 0.44339 
0.0324816 -0.0166465 0.44339 
0.0327297 -0.0168978 0.443302 
0.0327362 -0.0166465 0.44339 
0.0319765 -0.016394 0.443449 
0.0322291 -0.0163929 0.443419 
0.0324794 -0.0163907 0.443361 
0.0319765 -0.0166487 0.443449 
0.0327492 -0.0163983 0.443566 
0.0329843 -0.0168978 0.443302 
0.0330083 -0.0166553 0.443625 
0.0330148 -0.0164037 0.443713 
0.031724 -0.016395 0.443478 
0.0317302 -0.0161435 0.443566 
0.0319786 -0.0161403 0.443478 
0.0322141 -0.0161307 0.443214 
0.0324773 -0.016135 0.443331 
0.0327514 -0.0161446 0.443595 
0.0330192 -0.016151 0.443771 
0.0332367 -0.0168967 0.443272 
0.0332543 -0.0166509 0.443507 
0.0332675 -0.0164026 0.443683 
0.0332697 -0.0161488 0.443713 
0.0314693 -0.0161403 0.443478 
0.0319723 -0.0158824 0.44339 
0.0317323 -0.0158898 0.443595 
0.0314755 -0.0158887 0.443566 
0.032212 -0.0158751 0.443184 
0.0324751 -0.0158793 0.443302 
0.0327514 -0.0158898 0.443595 
0.0330236 -0.0158982 0.44383 
0.0332741 -0.0158961 0.443771 
0.0334912 -0.0168967 0.443272 
0.0334868 -0.0166399 0.443214 
0.0334934 -0.0163885 0.443302 
0.0335023 -0.0161382 0.443419 
0.0335023 -0.0158835 0.443419 
0.0312146 -0.0158856 0.443478 
0.0319659 -0.0156246 0.443302 
0.0317261 -0.0156319 0.443507 
0.0322163 -0.0156226 0.443243 
0.0314693 -0.0156308 0.443478 
0.0312043 -0.0156257 0.443331 
0.0324773 -0.0156257 0.443331 
0.0327557 -0.015637 0.443654 
0.0330323 -0.0156474 0.443948 
0.0332785 -0.0156432 0.44383 
0.0335023 -0.0156288 0.443419 
0.0337435 -0.016641 0.443243 
0.0337435 -0.0168956 0.443243 
0.0337503 -0.0163896 0.443331 
0.033757 -0.0161382 0.443419 
0.0337637 -0.0158866 0.443507 
0.0337659 -0.0156329 0.443537 
0.030964 -0.0158877 0.443537 
0.0309619 -0.0156319 0.443507 
0.0319659 -0.01537 0.443302 
0.0317281 -0.0153781 0.443537 
0.0322099 -0.0153649 0.443155 
0.0314672 -0.0153751 0.443449 
0.0324729 -0.015369 0.443272 
0.0312022 -0.01537 0.443302 
0.0309578 -0.0153751 0.443449 
0.0327579 -0.0153832 0.443683 
0.0332873 -0.0153924 0.443948 
0.0335289 -0.0153863 0.443771 
0.0340139 -0.0166487 0.443449 
0.0339981 -0.0168956 0.443243 
0.0340251 -0.0163994 0.443595 
0.0340364 -0.0161499 0.443742 
0.0340409 -0.0158971 0.443801 
0.033786 -0.0153873 0.443801 
0.0340454 -0.0156443 0.443859 
0.0307133 -0.015635 0.443595 
0.0307093 -0.0153781 0.443537 
0.0319702 -0.0151174 0.443361 
0.0317261 -0.0151224 0.443507 
0.0322077 -0.0151094 0.443126 
0.031463 -0.0151184 0.44339 
0.0324751 -0.0151154 0.443302 
0.031196 -0.0151124 0.443214 
0.0309353 -0.0151094 0.443126 
0.0307052 -0.0151214 0.443478 
0.0330083 -0.0151264 0.443625 
0.0327557 -0.0151274 0.443654 
0.0332697 -0.0151294 0.443713 
0.0335378 -0.0151354 0.443889 
0.0337905 -0.0151344 0.443859 
0.0342504 -0.0168944 0.443214 
0.0342776 -0.0166531 0.443566 
0.0342957 -0.016407 0.443801 
0.0343162 -0.0159066 0.444065 
0.0343071 -0.0161574 0.443948 
0.0340476 -0.0153903 0.443889 
0.0343071 -0.0153924 0.443948 
0.0343252 -0.0156557 0.444182 
0.0304606 -0.0153812 0.443625 
0.0304546 -0.0151234 0.443537 
0.0317218 -0.0148656 0.443449 
0.0319681 -0.0148617 0.443331 
0.0322099 -0.0148558 0.443155 
0.0314589 -0.0148617 0.443331 
0.0324837 -0.0148647 0.443419 
0.0311981 -0.0148588 0.443243 
0.0327535 -0.0148716 0.443625 
0.0309333 -0.0148538 0.443096 
0.0306991 -0.0148637 0.44339 
0.0304546 -0.0148686 0.443537 
0.0330127 -0.0148735 0.443683 
0.0332697 -0.0148745 0.443713 
0.0340679 -0.0151444 0.444153 
0.0345049 -0.0168944 0.443214 
0.0345415 -0.0164026 0.443683 
0.0345369 -0.0166553 0.443625 
0.034562 -0.0161574 0.443948 
0.0345803 -0.0156557 0.444182 
0.0345735 -0.0159076 0.444094 
0.0345689 -0.0153954 0.444036 
0.0319765 -0.0146109 0.443449 
0.0314568 -0.0146061 0.443302 
0.0317261 -0.0146129 0.443507 
0.032212 -0.0146022 0.443184 
0.0324794 -0.014608 0.443361 
0.0311919 -0.0146013 0.443155 
0.0327405 -0.0146109 0.443449 
0.0309292 -0.0145974 0.443038 
0.0329996 -0.0146129 0.443507 
0.0306951 -0.0146071 0.443331 
0.0304525 -0.0146129 0.443507 
0.0302038 -0.0146158 0.443595 
0.0332741 -0.0146216 0.443771 
0.0347571 -0.0168933 0.443184 
0.0347687 -0.0166443 0.443331 
0.0347687 -0.0163896 0.443331 
0.0347756 -0.0161382 0.443419 
0.0347894 -0.0158898 0.443595 
0.0347963 -0.0156381 0.443683 
0.0348032 -0.0153863 0.443771 
0.0348446 -0.0151494 0.4443 
0.0319808 -0.0143581 0.443507 
0.0317218 -0.0143562 0.443449 
0.0322056 -0.0143448 0.443096 
0.0314526 -0.0143496 0.443243 
0.0311919 -0.0143467 0.443155 
0.03246 -0.0143448 0.443096 
0.0327123 -0.0143439 0.443067 
0.0309271 -0.014342 0.443008 
0.0329952 -0.0143562 0.443449 
0.0306971 -0.0143534 0.443361 
0.0304485 -0.0143562 0.443449 
0.0302018 -0.01436 0.443566 
0.0332829 -0.0143705 0.443889 
0.0350117 -0.0168933 0.443184 
0.0350186 -0.0166421 0.443272 
0.0350186 -0.0163874 0.443272 
0.0350302 -0.0161382 0.443419 
0.0350372 -0.0158866 0.443507 
0.0350464 -0.015636 0.443625 
0.0350557 -0.0153853 0.443742 
0.0350859 -0.0151434 0.444124 
0.0319977 -0.0141108 0.443742 
0.0317198 -0.0141006 0.443419 
0.0314505 -0.014094 0.443214 
0.0321949 -0.0140856 0.44295 
0.0324364 -0.01408 0.442773 
0.0311857 -0.0140894 0.443067 
0.030923 -0.0140856 0.44295 
0.032708 -0.0140875 0.443008 
0.0306971 -0.0140987 0.443361 
0.032993 -0.0141006 0.443419 
0.0304747 -0.0141136 0.44383 
0.0301998 -0.0141043 0.443537 
0.0332961 -0.0141211 0.444065 
0.0352662 -0.0168933 0.443184 
0.0352732 -0.0166421 0.443272 
0.0352802 -0.0163907 0.443361 
0.0352965 -0.0161435 0.443566 
0.0353082 -0.015894 0.443713 
0.0353222 -0.0156453 0.443889 
0.0353386 -0.0153975 0.444094 
0.0353573 -0.0151504 0.444329 
0.0317218 -0.0138468 0.443449 
0.0319786 -0.0138477 0.443478 
0.0314505 -0.0138394 0.443214 
0.0311877 -0.0138358 0.443096 
0.0321672 -0.0138193 0.442568 
0.0324235 -0.0138202 0.442597 
0.0326972 -0.0138284 0.442862 
0.0309292 -0.0138339 0.443038 
0.0307072 -0.0138486 0.443507 
0.0329974 -0.0138477 0.443478 
0.0304747 -0.0138587 0.44383 
0.0301978 -0.0138486 0.443507 
0.0355301 -0.0166432 0.443302 
0.0355207 -0.0168933 0.443184 
0.035556 -0.0164005 0.443625 
0.0355677 -0.016151 0.443771 
0.0355772 -0.0159003 0.443889 
0.0355983 -0.0156546 0.444153 
0.0356054 -0.0154026 0.444241 
0.0356242 -0.0151554 0.444476 
0.0314505 -0.0135849 0.443214 
0.0317218 -0.0135921 0.443449 
0.0319659 -0.0135876 0.443302 
0.0311857 -0.0135804 0.443067 
0.0309251 -0.0135777 0.442979 
0.0321459 -0.0135561 0.442275 
0.0324041 -0.0135579 0.442333 
0.0326907 -0.0135714 0.442773 
0.0304747 -0.0136038 0.44383 
0.0307011 -0.0135912 0.443419 
0.0330017 -0.0135948 0.443537 
0.0301958 -0.013593 0.443478 
0.0299412 -0.013593 0.443478 
0.0357847 -0.0166432 0.443302 
0.0357942 -0.0163929 0.443419 
0.035825 -0.0161521 0.443801 
0.0358344 -0.0159013 0.443918 
0.0358487 -0.0156526 0.444094 
0.0358629 -0.0154036 0.44427 
0.0358818 -0.0151564 0.444505 
0.0314505 -0.0133303 0.443214 
0.0317218 -0.0133373 0.443449 
0.0311857 -0.0133259 0.443067 
0.0319871 -0.0133418 0.443595 
0.0309271 -0.0133241 0.443008 
0.0306951 -0.0133338 0.443331 
0.0324127 -0.0133073 0.442451 
0.0321501 -0.0133038 0.442333 
0.0327015 -0.0133215 0.44292 
0.0304747 -0.0133488 0.44383 
0.0330083 -0.0133426 0.443625 
0.0299431 -0.0133391 0.443507 
0.0301978 -0.0133391 0.443507 
0.0360464 -0.0163918 0.44339 
0.0360464 -0.0161371 0.44339 
0.0311877 -0.0130722 0.443096 
0.0314505 -0.0130757 0.443214 
0.031724 -0.0130835 0.443478 
0.0309251 -0.0130688 0.442979 
0.032004 -0.0130939 0.44383 
0.0306991 -0.0130809 0.44339 
0.0321587 -0.0130532 0.442451 
0.0324256 -0.0130584 0.442627 
0.0327297 -0.0130783 0.443302 
0.0304787 -0.0130956 0.443889 
0.0330301 -0.0130965 0.443918 
0.0299431 -0.0130844 0.443507 
0.0301978 -0.0130844 0.443507 
0.0363059 -0.016394 0.443449 
0.0363107 -0.0161414 0.443507 
0.0360464 -0.0158824 0.44339 
0.0362915 -0.0158782 0.443272 
0.0311857 -0.0128169 0.443067 
0.0314526 -0.012822 0.443243 
0.0309292 -0.012816 0.443038 
0.0317281 -0.0128305 0.443537 
0.0319998 -0.0128372 0.443771 
0.0307011 -0.0128271 0.443419 
0.0321629 -0.0128007 0.442509 
0.0324235 -0.0128033 0.442597 
0.0327102 -0.012816 0.443038 
0.0304767 -0.0128398 0.443859 
0.0330127 -0.0128347 0.443683 
0.0301978 -0.0128296 0.443507 
0.0299451 -0.0128305 0.443537 
0.0365654 -0.0163961 0.443507 
0.0365702 -0.0161435 0.443566 
0.0365726 -0.0158898 0.443595 
0.0362963 -0.0156257 0.443331 
0.0360536 -0.0156308 0.443478 
0.0365484 -0.0156246 0.443302 
0.0314526 -0.0125674 0.443243 
0.0311919 -0.0125649 0.443155 
0.0309271 -0.0125607 0.443008 
0.0317261 -0.0125749 0.443507 
0.0306991 -0.0125715 0.44339 
0.0319935 -0.0125798 0.443683 
0.0324127 -0.0125449 0.442451 
0.0321544 -0.0125432 0.442392 
0.0327058 -0.0125599 0.442979 
0.0304747 -0.012584 0.44383 
0.0330061 -0.0125774 0.443595 
0.0299451 -0.0125757 0.443537 
0.0301998 -0.0125757 0.443537 
0.0368225 -0.0163972 0.443537 
0.0368347 -0.0161478 0.443683 
0.0368396 -0.015895 0.443742 
0.0368396 -0.0156401 0.443742 
0.0360607 -0.0153792 0.443566 
0.0363035 -0.0153741 0.443419 
0.0365581 -0.0153741 0.443419 
0.0368225 -0.0153781 0.443537 
0.0317261 -0.0123201 0.443507 
0.0314568 -0.0123144 0.443302 
0.0311857 -0.0123079 0.443067 
0.0309271 -0.0123062 0.443008 
0.0319871 -0.0123226 0.443595 
0.0307011 -0.0123177 0.443419 
0.0324278 -0.0122965 0.442656 
0.0327123 -0.0123079 0.443067 
0.0301998 -0.0123209 0.443537 
0.0304747 -0.0123291 0.44383 
0.0330039 -0.0123217 0.443566 
0.0299451 -0.0123209 0.443537 
0.037092 -0.0161488 0.443713 
0.0371042 -0.0158992 0.443859 
0.0371042 -0.0156443 0.443859 
0.0371067 -0.0153903 0.443889 
0.0363131 -0.0151234 0.443537 
0.0360775 -0.0151314 0.443771 
0.036563 -0.0151214 0.443478 
0.0368323 -0.0151274 0.443654 
0.037087 -0.0151274 0.443654 
0.0314609 -0.0120614 0.443361 
0.0317281 -0.0120662 0.443537 
0.031985 -0.012067 0.443566 
0.0311919 -0.0120558 0.443155 
0.0309333 -0.0120542 0.443096 
0.0322291 -0.012063 0.443419 
0.0307032 -0.0120638 0.443449 
0.0324579 -0.0120534 0.443067 
0.0321864 -0.0123014 0.442832 
0.0327232 -0.0120574 0.443214 
0.0301998 -0.0120662 0.443537 
0.0304747 -0.0120741 0.44383 
0.0330039 -0.012067 0.443566 
0.0333115 -0.0120861 0.44427 
0.0373616 -0.0159003 0.443889 
0.0373591 -0.0156443 0.443859 
0.037369 -0.0153934 0.443977 
0.0373715 -0.0151394 0.444006 
0.0365775 -0.0148725 0.443654 
0.0363179 -0.0148706 0.443595 
0.0360918 -0.0148824 0.443948 
0.0368396 -0.0148755 0.443742 
0.037087 -0.0148725 0.443654 
0.0373122 -0.0148607 0.443302 
0.0311981 -0.0118036 0.443243 
0.031463 -0.0118075 0.44339 
0.0317302 -0.0118122 0.443566 
0.0319744 -0.0118083 0.443419 
0.0322312 -0.011809 0.443449 
0.0309353 -0.0118004 0.443126 
0.0307011 -0.0118083 0.443419 
0.0324902 -0.0118106 0.443507 
0.0304505 -0.0118098 0.443478 
0.0327297 -0.0118051 0.443302 
0.0302038 -0.0118129 0.443595 
0.0330061 -0.0118129 0.443595 
0.0332983 -0.0118262 0.444094 
0.0376265 -0.0153944 0.444006 
0.0376414 -0.0151454 0.444182 
0.0376364 -0.0148883 0.444124 
0.0365896 -0.0146225 0.443801 
0.0363371 -0.0146235 0.44383 
0.0368493 -0.0146245 0.443859 
0.0361013 -0.0146312 0.444065 
0.0370969 -0.0146216 0.443771 
0.0373196 -0.014609 0.44339 
0.0375568 -0.0146022 0.443184 
0.0314693 -0.0115551 0.443478 
0.031196 -0.0115482 0.443214 
0.0309353 -0.0115459 0.443126 
0.0317344 -0.0115589 0.443625 
0.0319808 -0.0115559 0.443507 
0.0322355 -0.0115559 0.443507 
0.0325009 -0.0115597 0.443654 
0.0306971 -0.011552 0.443361 
0.0304546 -0.0115566 0.443537 
0.0327535 -0.0115589 0.443625 
0.0302038 -0.0115581 0.443595 
0.0330148 -0.0115612 0.443713 
0.0332983 -0.0115711 0.444094 
0.0378965 -0.0151454 0.444182 
0.037904 -0.0148932 0.44427 
0.0379015 -0.014637 0.444241 
0.0363347 -0.0143676 0.443801 
0.0365968 -0.0143705 0.443889 
0.0368615 -0.0143743 0.444006 
0.0361013 -0.0143762 0.444065 
0.0371116 -0.0143724 0.443948 
0.037327 -0.0143572 0.443478 
0.0375668 -0.0143515 0.443302 
0.0312043 -0.0112966 0.443331 
0.0314713 -0.0113011 0.443507 
0.0317387 -0.0113056 0.443683 
0.0309394 -0.0112929 0.443184 
0.0319744 -0.0112989 0.443419 
0.0322376 -0.0113018 0.443537 
0.0324988 -0.0113041 0.443625 
0.0327644 -0.0113078 0.443771 
0.0304566 -0.0113026 0.443566 
0.0307072 -0.0113011 0.443507 
0.0330279 -0.0113108 0.443889 
0.0332939 -0.0113146 0.444036 
0.0335688 -0.0113213 0.4443 
0.0381591 -0.0148932 0.44427 
0.0381717 -0.0146428 0.444417 
0.037894 -0.014379 0.444153 
0.0381717 -0.0143876 0.444417 
0.0366041 -0.0141183 0.443977 
0.0363491 -0.0141183 0.443977 
0.0368688 -0.014122 0.444094 
0.0371116 -0.0141174 0.443948 
0.0361204 -0.0141286 0.4443 
0.0375668 -0.0140968 0.443302 
0.0373295 -0.0141034 0.443507 
0.0309599 -0.0110456 0.443478 
0.0312063 -0.0110427 0.443361 
0.0314776 -0.0110485 0.443595 
0.0317387 -0.0110507 0.443683 
0.0319829 -0.0110471 0.443537 
0.0322227 -0.011042 0.443331 
0.0324988 -0.0110493 0.443625 
0.03276 -0.0110515 0.443713 
0.0330279 -0.0110559 0.443889 
0.0304566 -0.0110478 0.443566 
0.0307113 -0.0110478 0.443566 
0.0332895 -0.011058 0.443977 
0.0335511 -0.0110602 0.444065 
0.0338061 -0.0110602 0.444065 
0.0384295 -0.0146438 0.444447 
0.0384295 -0.0143885 0.444447 
0.0381541 -0.0141258 0.444212 
0.0378865 -0.0141211 0.444065 
0.0384117 -0.0141267 0.444241 
0.0366138 -0.0138669 0.444094 
0.0363635 -0.0138688 0.444153 
0.0368664 -0.013866 0.444065 
0.037114 -0.0138633 0.443977 
0.0373295 -0.0138486 0.443507 
0.0375668 -0.0138422 0.443302 
0.030966 -0.010793 0.443566 
0.0312104 -0.0107895 0.443419 
0.0307113 -0.010793 0.443566 
0.0314776 -0.0107937 0.443595 
0.0317428 -0.0107973 0.443742 
0.0319786 -0.0107909 0.443478 
0.0322227 -0.0107873 0.443331 
0.0324859 -0.0107902 0.443449 
0.0327774 -0.0108023 0.443948 
0.0330563 -0.0108102 0.44427 
0.0332895 -0.010803 0.443977 
0.0335511 -0.0108052 0.444065 
0.0338084 -0.0108059 0.444094 
0.0340724 -0.0108087 0.444212 
0.0384041 -0.0138688 0.444153 
0.038149 -0.0138688 0.444153 
0.037879 -0.0138633 0.443977 
0.0366138 -0.0136119 0.444094 
0.0363876 -0.0136226 0.444447 
0.0368713 -0.0136128 0.444124 
0.0371189 -0.0136101 0.444036 
0.0375717 -0.0135894 0.443361 
0.0373344 -0.0135957 0.443566 
0.0378214 -0.0135876 0.443302 
0.0312249 -0.0105396 0.443625 
0.030966 -0.0105382 0.443566 
0.0314838 -0.010541 0.443683 
0.031747 -0.0105438 0.443801 
0.0319786 -0.0105362 0.443478 
0.0322269 -0.0105341 0.44339 
0.0324966 -0.0105389 0.443595 
0.0330563 -0.010555 0.44427 
0.0327774 -0.0105473 0.443948 
0.0333159 -0.0105564 0.444329 
0.0335511 -0.0105501 0.444065 
0.0338061 -0.0105501 0.444065 
0.0340611 -0.0105501 0.444065 
0.0343434 -0.0105585 0.444417 
0.0346146 -0.0108187 0.444623 
0.034594 -0.0105571 0.444358 
0.0381339 -0.0136083 0.443977 
0.0383965 -0.013611 0.444065 
0.0366235 -0.0133603 0.444212 
0.036881 -0.0133612 0.444241 
0.0363972 -0.0133709 0.444564 
0.0371214 -0.0133559 0.444065 
0.0373319 -0.01334 0.443537 
0.0378188 -0.013332 0.443272 
0.0375693 -0.0133338 0.443331 
0.0312249 -0.0102848 0.443625 
0.0314838 -0.0102862 0.443683 
0.0317491 -0.0102896 0.44383 
0.0319871 -0.0102841 0.443595 
0.0322291 -0.0102801 0.443419 
0.0324966 -0.0102841 0.443595 
0.0327752 -0.0102916 0.443918 
0.0330498 -0.0102977 0.444182 
0.0333181 -0.0103018 0.444358 
0.0335444 -0.010293 0.443977 
0.0337994 -0.010293 0.443977 
0.0340544 -0.010293 0.443977 
0.0343094 -0.010293 0.443977 
0.0345826 -0.0102984 0.444212 
0.0348446 -0.0110661 0.4443 
0.0348262 -0.0108052 0.444065 
0.0381238 -0.0133497 0.443859 
0.0383864 -0.0133524 0.443948 
0.0366283 -0.0131069 0.44427 
0.0368786 -0.0131051 0.444212 
0.0371239 -0.0131017 0.444094 
0.0364068 -0.013119 0.444681 
0.0373344 -0.0130861 0.443566 
0.0375693 -0.0130792 0.443331 
0.0378214 -0.0130783 0.443302 
0.0314901 -0.0100333 0.443771 
0.0317449 -0.0100333 0.443771 
0.0319913 -0.0100307 0.443654 
0.0322376 -0.010028 0.443537 
0.0325009 -0.0100307 0.443654 
0.0327752 -0.0100366 0.443918 
0.033052 -0.0100433 0.444212 
0.0333049 -0.0100426 0.444182 
0.03354 -0.0100366 0.443918 
0.0337927 -0.010036 0.443889 
0.0340476 -0.010036 0.443889 
0.0343026 -0.010036 0.443889 
0.0345598 -0.0100366 0.443918 
0.0348124 -0.0102909 0.443889 
0.0348101 -0.0105452 0.443859 
0.0348101 -0.0100353 0.443859 
0.0350928 -0.0110639 0.444212 
0.0350835 -0.0108059 0.444094 
0.035065 -0.0105452 0.443859 
0.0381213 -0.0130939 0.44383 
0.0384041 -0.0131034 0.444153 
0.0386617 -0.0131043 0.444182 
0.0366235 -0.01285 0.444212 
0.0363924 -0.0128585 0.444505 
0.0368761 -0.0128491 0.444182 
0.0371189 -0.0128449 0.444036 
0.0373344 -0.0128313 0.443566 
0.0375717 -0.0128254 0.443361 
0.0378188 -0.0128228 0.443272 
0.0359032 -0.0115887 0.444769 
0.0317491 -0.00977971 0.44383 
0.0314901 -0.00977842 0.443771 
0.032004 -0.00977971 0.44383 
0.0322376 -0.00977324 0.443537 
0.0325031 -0.00977648 0.443683 
0.0327795 -0.00978294 0.443977 
0.0330454 -0.00978618 0.444124 
0.0333049 -0.00978747 0.444182 
0.0335378 -0.009781 0.443889 
0.0337882 -0.00977971 0.44383 
0.0340431 -0.00977971 0.44383 
0.0342935 -0.00977842 0.443771 
0.0345506 -0.00977906 0.443801 
0.0348032 -0.00977842 0.443771 
0.035065 -0.0102903 0.443859 
0.0350557 -0.0100327 0.443742 
0.035058 -0.00977842 0.443771 
0.0353619 -0.0110683 0.444388 
0.0353503 -0.0108095 0.444241 
0.0353362 -0.0105501 0.444065 
0.0353269 -0.0102923 0.443948 
0.0381138 -0.0128364 0.443742 
0.0383864 -0.0128423 0.443948 
0.0386413 -0.0128423 0.443948 
0.036378 -0.0125982 0.444329 
0.0366259 -0.0125957 0.444241 
0.0368761 -0.012594 0.444182 
0.0371189 -0.0125898 0.444036 
0.0373319 -0.0125757 0.443537 
0.0375717 -0.0125707 0.443361 
0.0378239 -0.0125699 0.443331 
0.0381011 -0.0125774 0.443595 
0.0358984 -0.0113318 0.444711 
0.032004 -0.00952477 0.44383 
0.0317491 -0.00952477 0.44383 
0.0322611 -0.0095254 0.443859 
0.0325138 -0.00952477 0.44383 
0.0327687 -0.00952477 0.44383 
0.0330367 -0.00952855 0.444006 
0.0332785 -0.00952477 0.44383 
0.0337815 -0.00952288 0.443742 
0.0335289 -0.00952351 0.443771 
0.0340341 -0.00952225 0.443713 
0.0342867 -0.00952162 0.443683 
0.0345415 -0.00952162 0.443683 
0.034794 -0.00952099 0.443654 
0.0350488 -0.00952099 0.443654 
0.0353199 -0.0100353 0.443859 
0.0353129 -0.00977842 0.443771 
0.0352989 -0.00951973 0.443595 
0.0356336 -0.0110734 0.444593 
0.0356219 -0.0108145 0.444447 
0.0356054 -0.0105543 0.444241 
0.035603 -0.0102984 0.444212 
0.0355936 -0.0100406 0.444094 
0.0383661 -0.0125807 0.443713 
0.0386464 -0.012589 0.444006 
0.038904 -0.0125898 0.444036 
0.0361514 -0.0123527 0.444681 
0.0363491 -0.0123332 0.443977 
0.0366138 -0.0123364 0.444094 
0.0368713 -0.0123372 0.444124 
0.0371214 -0.0123356 0.444065 
0.0373344 -0.0123217 0.443566 
0.0375742 -0.0123168 0.44339 
0.0378489 -0.0123234 0.443625 
0.0381011 -0.0123226 0.443595 
0.0383635 -0.012325 0.443683 
0.0358747 -0.011069 0.444417 
0.0322611 -0.00927045 0.443859 
0.0325138 -0.00926984 0.44383 
0.0327665 -0.00926922 0.443801 
0.0330192 -0.00926861 0.443771 
0.0332719 -0.009268 0.443742 
0.0335245 -0.00926739 0.443713 
0.0340296 -0.00926616 0.443654 
0.0337771 -0.00926677 0.443683 
0.0342821 -0.00926555 0.443625 
0.0345346 -0.00926493 0.443595 
0.0347894 -0.00926493 0.443595 
0.0350418 -0.00926432 0.443566 
0.0352942 -0.00926371 0.443537 
0.0355819 -0.0097823 0.443948 
0.0355536 -0.00951973 0.443595 
0.0355466 -0.00926309 0.443507 
0.0358676 -0.0108116 0.444329 
0.0358581 -0.0105536 0.444212 
0.0358534 -0.0102971 0.444153 
0.0358392 -0.010038 0.443977 
0.0358368 -0.0097823 0.443948 
0.0386439 -0.0123332 0.443977 
0.0389014 -0.012334 0.444006 
0.0366089 -0.0120797 0.444036 
0.0363467 -0.0120773 0.443948 
0.0361037 -0.0120813 0.444094 
0.0368688 -0.0120813 0.444094 
0.0371214 -0.0120805 0.444065 
0.0373418 -0.0120693 0.443654 
0.0375693 -0.0120606 0.443331 
0.0378439 -0.012067 0.443566 
0.0380986 -0.012067 0.443566 
0.0383534 -0.012067 0.443566 
0.0386081 -0.012067 0.443566 
0.0325138 -0.0090149 0.44383 
0.0327687 -0.0090149 0.44383 
0.0330214 -0.0090143 0.443801 
0.0332719 -0.00901311 0.443742 
0.0335245 -0.00901252 0.443713 
0.0337748 -0.00901132 0.443654 
0.0340274 -0.00901073 0.443625 
0.0342799 -0.00901013 0.443595 
0.0345346 -0.00901013 0.443595 
0.0347871 -0.00900953 0.443566 
0.0350395 -0.00900894 0.443537 
0.0352919 -0.00900834 0.443507 
0.0355442 -0.00900775 0.443478 
0.035806 -0.0095191 0.443566 
0.0358013 -0.00926309 0.443507 
0.0357989 -0.00900775 0.443478 
0.0360631 -0.0100293 0.443595 
0.0360584 -0.00977324 0.443537 
0.0389014 -0.0120789 0.444006 
0.0366065 -0.0118239 0.444006 
0.0363443 -0.0118215 0.443918 
0.0368688 -0.0118262 0.444094 
0.0360989 -0.0118247 0.444036 
0.0371189 -0.0118247 0.444036 
0.0375717 -0.0118067 0.443361 
0.0373344 -0.0118122 0.443566 
0.0378439 -0.0118122 0.443566 
0.0381037 -0.0118137 0.443625 
0.0383584 -0.0118137 0.443625 
0.0386081 -0.0118122 0.443566 
0.0327687 -0.00875996 0.44383 
0.0330214 -0.00875938 0.443801 
0.0332719 -0.00875823 0.443742 
0.0335245 -0.00875765 0.443713 
0.0337748 -0.00875649 0.443654 
0.0340274 -0.00875591 0.443625 
0.0342799 -0.00875533 0.443595 
0.0345346 -0.00875533 0.443595 
0.0347871 -0.00875475 0.443566 
0.0350395 -0.00875417 0.443537 
0.0352919 -0.00875359 0.443507 
0.0355442 -0.00875301 0.443478 
0.0357989 -0.00875301 0.443478 
0.0360584 -0.00951847 0.443537 
0.036056 -0.00926309 0.443507 
0.036056 -0.00900834 0.443507 
0.0363203 -0.00977518 0.443625 
0.0363083 -0.0100267 0.443478 
0.0363131 -0.0102828 0.443537 
0.0360631 -0.0102841 0.443595 
0.0363155 -0.0095191 0.443566 
0.0363395 -0.011565 0.443859 
0.0365968 -0.0115658 0.443889 
0.0368591 -0.0115681 0.443977 
0.0360918 -0.0115673 0.443948 
0.037114 -0.0115681 0.443977 
0.0378414 -0.0115566 0.443537 
0.0375643 -0.0115497 0.443272 
0.0373295 -0.0115559 0.443507 
0.0380961 -0.0115566 0.443537 
0.0383508 -0.0115566 0.443537 
0.0363131 -0.00926371 0.443537 
0.0365751 -0.01003 0.443625 
0.0365751 -0.00977518 0.443625 
0.0365751 -0.00952036 0.443625 
0.0365605 -0.0102807 0.443449 
0.0360631 -0.0105389 0.443595 
0.0363107 -0.0105368 0.443507 
0.0365702 -0.0105382 0.443566 
0.0365993 -0.0113116 0.443918 
0.0363299 -0.0113071 0.443742 
0.0360894 -0.0113116 0.443918 
0.0368566 -0.0113123 0.443948 
0.0371018 -0.0113093 0.44383 
0.0378464 -0.0113033 0.443595 
0.0375941 -0.0113041 0.443625 
0.0381011 -0.0113033 0.443595 
0.037327 -0.0113004 0.443478 
0.0383508 -0.0113018 0.443537 
0.0368323 -0.0100307 0.443654 
0.0368323 -0.00977583 0.443654 
0.0368323 -0.0102855 0.443654 
0.0368371 -0.0105417 0.443713 
0.0363131 -0.0107923 0.443537 
0.0360727 -0.0107966 0.443713 
0.0365751 -0.0107945 0.443625 
0.0368371 -0.0107966 0.443713 
0.0365823 -0.0110515 0.443713 
0.0363227 -0.01105 0.443654 
0.0368469 -0.0110544 0.44383 
0.0360751 -0.0110522 0.443742 
0.0370993 -0.0110537 0.443801 
0.0373492 -0.0110522 0.443742 
0.0381011 -0.0110485 0.443595 
0.0378464 -0.0110485 0.443595 
0.0376041 -0.0110522 0.443742 
0.037087 -0.00977583 0.443654 
0.0370846 -0.0102848 0.443625 
0.037087 -0.0100307 0.443654 
0.037087 -0.0105403 0.443654 
0.0370969 -0.010798 0.443771 
0.0373517 -0.010798 0.443771 
0.0376066 -0.010798 0.443771 
0.0373394 -0.01003 0.443625 
0.0373394 -0.0102848 0.443625 
0.0373369 -0.0105389 0.443595 
0.0375916 -0.0105389 0.443595 
0.0375916 -0.0102841 0.443595 
0.0208083 -0.00545083 0.444241 
0.0208096 -0.005196 0.44427 
0.0205531 -0.00519566 0.444241 
0.021062 -0.00545047 0.444212 
0.0210648 -0.005196 0.44427 
0.0208096 -0.00494081 0.44427 
0.0205436 -0.0049382 0.444036 
0.0210731 -0.00494277 0.444447 
0.0202913 -0.00493886 0.444094 
0.0213199 -0.005196 0.44427 
0.0213185 -0.00545083 0.444241 
0.0213326 -0.00494375 0.444535 
0.0208138 -0.00468655 0.444358 
0.0205477 -0.00468408 0.444124 
0.0210787 -0.00468872 0.444564 
0.0202953 -0.0046847 0.444182 
0.021341 -0.00469027 0.444711 
0.0200535 -0.0049431 0.444476 
0.0215736 -0.00545083 0.444241 
0.0215751 -0.00494081 0.44427 
0.0215765 -0.00519635 0.4443 
0.0215808 -0.00468686 0.444388 
0.0208193 -0.00443248 0.444476 
0.0205518 -0.00442985 0.444212 
0.0210843 -0.00443453 0.444681 
0.020294 -0.00442926 0.444153 
0.0200575 -0.00468872 0.444564 
0.0215808 -0.00443161 0.444388 
0.0213509 -0.00443687 0.444916 
0.0198021 -0.00468872 0.444564 
0.0197878 -0.00494049 0.444241 
0.0218316 -0.00519635 0.4443 
0.0218288 -0.00545083 0.444241 
0.0218201 -0.00493853 0.444065 
0.0218259 -0.0046847 0.444182 
0.0218302 -0.00443044 0.44427 
0.0205491 -0.00417414 0.444153 
0.0208206 -0.00417745 0.444505 
0.020298 -0.00417497 0.444241 
0.0210912 -0.00418049 0.444828 
0.0200614 -0.00443424 0.444652 
0.0197995 -0.00443278 0.444505 
0.0215907 -0.00417828 0.444593 
0.0218374 -0.00417663 0.444417 
0.0213565 -0.00418242 0.445034 
0.0195326 -0.00468531 0.444241 
0.0195352 -0.00443073 0.4443 
0.0220824 -0.00545047 0.444212 
0.022078 -0.00493918 0.444124 
0.0220853 -0.005196 0.44427 
0.0220882 -0.00468624 0.444329 
0.0220897 -0.00443131 0.444358 
0.0220999 -0.004178 0.444564 
0.0208165 -0.00392135 0.444417 
0.0205491 -0.00391902 0.444153 
0.0202953 -0.00391928 0.444182 
0.0200628 -0.00417911 0.444681 
0.0210968 -0.00392601 0.444946 
0.0197995 -0.00417745 0.444505 
0.0195339 -0.00417525 0.44427 
0.0218417 -0.00392213 0.444505 
0.0215922 -0.00392316 0.444623 
0.0221087 -0.0039242 0.44474 
0.0213636 -0.00392808 0.44518 
0.0192762 -0.00468501 0.444212 
0.0192661 -0.00442751 0.443977 
0.0192661 -0.00417249 0.443977 
0.0223375 -0.00545047 0.444212 
0.022339 -0.00519566 0.444241 
0.0223434 -0.00494147 0.444329 
0.0223523 -0.0046881 0.444505 
0.0223611 -0.00443453 0.444681 
0.0223759 -0.00418187 0.444975 
0.0208234 -0.00366729 0.444564 
0.0205667 -0.00366705 0.444535 
0.0210843 -0.00366826 0.444681 
0.0202953 -0.00366414 0.444182 
0.0200641 -0.00392394 0.444711 
0.0197995 -0.00392213 0.444505 
0.0213439 -0.00366898 0.444769 
0.0195314 -0.00391954 0.444212 
0.0216078 -0.00367044 0.444946 
0.0223833 -0.00392757 0.445122 
0.0190211 -0.00442985 0.444212 
0.0190061 -0.00417138 0.443859 
0.0192622 -0.00391669 0.443889 
0.0190098 -0.00391721 0.443948 
0.0225911 -0.00545011 0.444182 
0.0225926 -0.00519532 0.444212 
0.0226061 -0.0049431 0.444476 
0.0226165 -0.00468996 0.444681 
0.0226255 -0.00443629 0.444857 
0.0226359 -0.00418269 0.445063 
0.0208275 -0.00341261 0.444652 
0.020564 -0.00341125 0.444476 
0.020302 -0.00341013 0.444329 
0.021101 -0.00341553 0.445034 
0.0200455 -0.0034099 0.4443 
0.0200667 -0.00366898 0.444769 
0.0198021 -0.00366729 0.444564 
0.0195301 -0.00366414 0.444182 
0.0192635 -0.00366196 0.443918 
0.0218735 -0.00367213 0.445151 
0.0213692 -0.00341756 0.445298 
0.0226523 -0.0039299 0.445386 
0.0221306 -0.00367237 0.44518 
0.0223818 -0.00367165 0.445092 
0.0226389 -0.00367189 0.445122 
0.0187648 -0.00417442 0.444182 
0.0190035 -0.00366099 0.443801 
0.0187685 -0.00366487 0.44427 
0.0187722 -0.00392083 0.444358 
0.0228447 -0.00544975 0.444153 
0.0228477 -0.00519532 0.444212 
0.0228477 -0.00494016 0.444212 
0.0228568 -0.00468686 0.444388 
0.0228583 -0.0044319 0.444417 
0.0228689 -0.00417856 0.444623 
0.020564 -0.00315595 0.444476 
0.0208358 -0.00315845 0.444828 
0.020298 -0.00315428 0.444241 
0.0200442 -0.00315449 0.44427 
0.021119 -0.00316262 0.445415 
0.0197982 -0.00341125 0.444476 
0.0197852 -0.00315386 0.444182 
0.0192622 -0.00340675 0.443889 
0.0195275 -0.00340855 0.444124 
0.019001 -0.00340562 0.443742 
0.0216406 -0.00342004 0.445621 
0.0226479 -0.00341756 0.445298 
0.0228855 -0.00341486 0.444946 
0.0228855 -0.00367044 0.444946 
0.0185122 -0.0039198 0.444241 
0.0185122 -0.00366463 0.444241 
0.0185122 -0.00340945 0.444241 
0.0187648 -0.003409 0.444182 
0.0230998 -0.00544975 0.444153 
0.0231013 -0.00519497 0.444182 
0.0231089 -0.00494147 0.444329 
0.0230967 -0.00468377 0.444094 
0.0231013 -0.00442956 0.444182 
0.0231089 -0.0041758 0.444329 
0.0228719 -0.00392368 0.444681 
0.0231135 -0.00392135 0.444417 
0.0205626 -0.00290045 0.444447 
0.020294 -0.00289853 0.444153 
0.0208399 -0.00290351 0.444916 
0.0200336 -0.00289777 0.444036 
0.0197852 -0.00289872 0.444182 
0.0211302 -0.0029083 0.44565 
0.0195262 -0.00289815 0.444094 
0.0195236 -0.00315282 0.444036 
0.0189998 -0.00315053 0.443713 
0.0192584 -0.00315115 0.443801 
0.0224069 -0.00341981 0.445591 
0.0229126 -0.00316303 0.445474 
0.0231318 -0.00315803 0.444769 
0.0231242 -0.00341238 0.444623 
0.0231181 -0.0036668 0.444505 
0.0182594 -0.0034099 0.4443 
0.018251 -0.00315324 0.444094 
0.0185122 -0.00315428 0.444241 
0.0187673 -0.00315428 0.444241 
0.0233564 -0.00519497 0.444182 
0.0233626 -0.00494114 0.4443 
0.0233672 -0.00468686 0.444388 
0.0233564 -0.00442956 0.444182 
0.0233641 -0.0041758 0.444329 
0.0233718 -0.00392187 0.444476 
0.0233795 -0.00366777 0.444623 
0.0202953 -0.00264359 0.444182 
0.0205667 -0.00264568 0.444535 
0.020027 -0.00264184 0.443889 
0.0208454 -0.00264865 0.445034 
0.0197721 -0.00264184 0.443889 
0.0195236 -0.00264271 0.444036 
0.0213917 -0.00265302 0.445767 
0.0211357 -0.00265302 0.445767 
0.0192533 -0.00289547 0.443683 
0.0192648 -0.00264219 0.443948 
0.0189947 -0.00289489 0.443595 
0.0221627 -0.00342162 0.445826 
0.0231654 -0.00290677 0.445415 
0.0233919 -0.00341418 0.444857 
0.0234042 -0.00290466 0.445092 
0.0233996 -0.0031597 0.445004 
0.018009 -0.00315553 0.444417 
0.018009 -0.0034108 0.444417 
0.0180079 -0.00290007 0.444388 
0.0182498 -0.00289796 0.444065 
0.018506 -0.00289815 0.444094 
0.0187636 -0.00289853 0.444153 
0.0236177 -0.00494114 0.4443 
0.0236208 -0.00468655 0.444358 
0.0236255 -0.00443219 0.444447 
0.0236349 -0.00417856 0.444623 
0.023638 -0.00392368 0.444681 
0.0236505 -0.00367019 0.444916 
0.0203007 -0.00238908 0.4443 
0.0205749 -0.00239129 0.444711 
0.020023 -0.0023864 0.443801 
0.0197551 -0.00238482 0.443507 
0.0195262 -0.00238797 0.444094 
0.0192635 -0.00238703 0.443918 
0.0208756 -0.0023965 0.445679 
0.0189922 -0.00263974 0.443537 
0.0219211 -0.00342387 0.44612 
0.0234336 -0.00265232 0.44565 
0.0236599 -0.00341599 0.445092 
0.023663 -0.00316074 0.445151 
0.0236786 -0.00290696 0.445445 
0.0177597 -0.00290121 0.444564 
0.0177597 -0.00264586 0.444564 
0.0179888 -0.00264201 0.443918 
0.0182462 -0.00264236 0.443977 
0.018506 -0.00264306 0.444094 
0.0187574 -0.00264254 0.444006 
0.023876 -0.00468655 0.444358 
0.0238776 -0.00443161 0.444388 
0.0238981 -0.00417993 0.444769 
0.023906 -0.00392575 0.444916 
0.0239155 -0.00367165 0.445092 
0.0239202 -0.00341666 0.44518 
0.0203114 -0.002135 0.444535 
0.0205857 -0.00213697 0.444946 
0.020023 -0.00213148 0.443801 
0.0195159 -0.00213176 0.443859 
0.0197512 -0.00212964 0.443419 
