# .PCD v0.7 - Point Cloud Data file format
VERSION 0.7
FIELDS x y z
SIZE 4 4 4
TYPE F F F
COUNT 1 1 1
WIDTH 1421
HEIGHT 1
VIEWPOINT 0 0 0 1 0 0 0
POINTS 1421
DATA ascii
0.039076898 0.0211294 0.434614
0.0383876 0.0214123 0.435289
0.0393424 0.021137999 0.43478999
0.0383747 0.021655001 0.43514201
0.038608901 0.0213964 0.434966
0.0388535 0.0213935 0.43490699
0.039103199 0.0213935 0.43490699
0.0386272 0.0216564 0.43517101
0.0388797 0.021657901 0.43520099
-0.0136819 0.0124998 0.429741
-0.0134342 0.0127458 0.429712
-0.0136782 0.0127432 0.42962399
-0.0134324 0.0129909 0.42965299
-0.0136735 0.0129855 0.42947701
-0.013173 0.0129784 0.42924201
-0.0136698 0.0132286 0.42936
-0.0134296 0.0132349 0.42956501
-0.0129265 0.0129784 0.42924201
-0.0129186 0.0132169 0.428978
-0.0131649 0.0132169 0.428978
-0.0134214 0.0134734 0.42930099
-0.013667 0.0134725 0.429272
-0.0126679 0.0134586 0.42883101
-0.0131622 0.0134605 0.42888999
-0.012915 0.0134596 0.42886099
-0.0134177 0.0137162 0.42918399
-0.0136632 0.0137153 0.42915401
-0.0126696 0.0139532 0.42888999
-0.0126679 0.013705 0.42883101
-0.0129141 0.013705 0.42883101
-0.0131577 0.0137022 0.428743
-0.0129159 0.0139532 0.42888999
-0.0136614 0.0139599 0.429095
-0.013415 0.0139599 0.429095
-0.0126566 0.014185 0.42844999
-0.0131532 0.0139437 0.428597
-0.0129027 0.014185 0.42844999
-0.0134113 0.0142025 0.428978
-0.0136586 0.0142034 0.42900699
-0.0136586 0.0144499 0.42900699
-0.0126566 0.0144311 0.42844999
-0.0131505 0.0141869 0.42850801
-0.0129027 0.0144311 0.42844999
-0.0129027 0.0146772 0.42844999
-0.0131487 0.0144311 0.42844999
-0.0134085 0.0144459 0.42888999
-0.0136576 0.0146953 0.428978
-0.0136567 0.0149407 0.428949
-0.0134067 0.0146903 0.42883101
-0.0126609 0.0146822 0.428597
-0.0131478 0.0146762 0.42842001
-0.0129027 0.0149233 0.42844999
-0.0131505 0.0149253 0.42850801
-0.0129035 0.0151704 0.42847899
-0.0134104 0.0149407 0.428949
-0.0136576 0.0151881 0.428978
-0.0134085 0.015185 0.42888999
-0.0136576 0.0154345 0.428978
-0.0131505 0.0151715 0.42850801
-0.0129044 0.0154176 0.42850801
-0.0131514 0.0154187 0.42853799
-0.0129053 0.015664799 0.42853799
-0.0126618 0.0154218 0.428626
-0.0134085 0.0154313 0.42888999
-0.0136586 0.015682001 0.42900699
-0.0134104 0.015679801 0.428949
-0.0136595 0.0159295 0.429037
-0.0131514 0.015664799 0.42853799
-0.0126644 0.015671199 0.42871401
-0.0131532 0.015913101 0.428597
-0.0129071 0.015913101 0.428597
-0.0126653 0.015918599 0.428743
-0.0124208 0.0154282 0.42880201
-0.0134122 0.015928401 0.42900699
-0.0138954 0.0161638 0.42871401
-0.0136614 0.016178099 0.429095
-0.0134131 0.0161759 0.429037
-0.0131541 0.016160401 0.428626
-0.012908 0.016160401 0.428626
-0.013155 0.016407801 0.428655
-0.0126679 0.016168199 0.42883101
-0.0124327 0.0151964 0.42921299
-0.013414 0.016423499 0.429066
-0.0138964 0.016657401 0.428743
-0.0138954 0.016410001 0.42871401
-0.0136632 0.0164269 0.42915401
-0.013415 0.016671101 0.429095
-0.0129106 0.016410001 0.42871401
-0.0126687 0.0164156 0.42886099
-0.0131577 0.016657401 0.428743
-0.0129115 0.016657401 0.428743
-0.0121928 0.0154514 0.42944801
-0.0126791 0.0151964 0.42921299
-0.012431 0.0149478 0.42915401
-0.0126774 0.0149478 0.42915401
-0.012431 0.0147013 0.42915401
-0.0136642 0.0166745 0.42918399
-0.0138954 0.016902501 0.42871401
-0.0138945 0.017147601 0.42868501
-0.013666 0.016923301 0.42924201
-0.0134168 0.0169199 0.42915401
-0.0131577 0.0169037 0.428743
-0.0126705 0.0166642 0.42891899
-0.0129124 0.016904799 0.42877299
-0.0124293 0.016671101 0.429095
-0.0126705 0.0169106 0.42891899
-0.0131577 0.017149899 0.428743
-0.0129124 0.017151101 0.42877299
-0.0124395 0.0156981 0.42944801
-0.0121962 0.0157024 0.42956501
-0.0138964 0.0173962 0.428743
-0.0138964 0.0176425 0.428743
-0.0134177 0.0171676 0.42918399
-0.013667 0.0171711 0.429272
-0.0134186 0.0174153 0.42921299
-0.0131577 0.0173962 0.428743
-0.0126713 0.017158199 0.428949
-0.0124293 0.016917599 0.429095
-0.0129133 0.0173986 0.42880201
-0.0124412 0.0164403 0.429506
-0.0124293 0.017163999 0.429095
-0.0126722 0.0174057 0.428978
-0.0131577 0.0176425 0.428743
-0.0129133 0.017644901 0.42880201
-0.0124395 0.015944701 0.42944801
-0.0124412 0.0161936 0.429506
-0.0122062 0.0159622 0.42991701
-0.0138992 0.0178924 0.42883101
-0.0136689 0.017419999 0.42932999
-0.0136698 0.017667901 0.42936
-0.0134177 0.0179071 0.42918399
-0.0134205 0.0176642 0.429272
-0.0131586 0.017890001 0.42877299
-0.0126722 0.0176521 0.428978
-0.0124301 0.0174117 0.42912501
-0.0129133 0.0178912 0.42880201
-0.0122045 0.0162069 0.42985901
-0.0122045 0.0167007 0.42985901
-0.0122045 0.016453801 0.42985901
-0.0124301 0.0176582 0.42912501
-0.0126722 0.017898601 0.428978
-0.0131595 0.0181375 0.42880201
-0.0129141 0.0181388 0.42883101
-0.0138992 0.0181388 0.42883101
-0.0138983 0.018383799 0.42880201
-0.0136698 0.0179145 0.42936
-0.0136717 0.018163599 0.429418
-0.0134205 0.0181574 0.429272
-0.0134186 0.018401399 0.42921299
-0.0131577 0.018381299 0.428743
-0.0126713 0.0181437 0.428949
-0.0124301 0.017904701 0.42912501
-0.0129141 0.018385099 0.42883101
-0.0122037 0.0169465 0.429829
-0.0122037 0.017193399 0.429829
-0.0124301 0.018151199 0.42912501
-0.012192 0.017916899 0.429418
-0.0126713 0.0183901 0.428949
-0.0131586 0.0186288 0.42877299
-0.0129133 0.0186301 0.42880201
-0.0138992 0.018631401 0.42883101
-0.0138992 0.0188777 0.42883101
-0.0136726 0.0184115 0.42944801
-0.0136726 0.0186582 0.42944801
-0.0134186 0.018648 0.42921299
-0.0134205 0.018897099 0.429272
-0.0131586 0.0188751 0.42877299
-0.0126713 0.0186365 0.428949
-0.0124301 0.0183977 0.42912501
-0.0121903 0.018161099 0.42936
-0.0129133 0.0188764 0.42880201
-0.012202 0.017437899 0.42977101
-0.0122028 0.017686 0.4298
-0.0124293 0.018642901 0.429095
-0.0121887 0.018405201 0.42930099
-0.0126713 0.0188829 0.428949
-0.0131577 0.019120101 0.428743
-0.0129124 0.019121399 0.42877299
-0.0138992 0.019123999 0.42883101
-0.0136745 0.0189074 0.429506
-0.0136726 0.019151499 0.42944801
-0.0134177 0.0191397 0.42918399
-0.0134186 0.019387599 0.42921299
-0.0131559 0.019363699 0.42868501
-0.0124293 0.018889301 0.429095
-0.0126705 0.019128 0.42891899
-0.0121887 0.0186518 0.42930099
-0.0129115 0.0193664 0.428743
-0.0119625 0.0179426 0.430035
-0.0124284 0.019134499 0.429066
-0.0119372 0.0186441 0.42912501
-0.0121878 0.018897099 0.429272
-0.0126696 0.019373 0.42888999
-0.013155 0.0196086 0.428655
-0.0129097 0.019610001 0.42868501
-0.0136717 0.019396899 0.429418
-0.0134168 0.019631401 0.42915401
-0.0134159 0.019876599 0.42912501
-0.0124276 0.019379601 0.429037
-0.0121853 0.0191397 0.42918399
-0.0119364 0.018889301 0.429095
-0.0126679 0.019616701 0.42883101
-0.0129088 0.019854801 0.428655
-0.0119609 0.018187201 0.42997599
-0.0124267 0.019624701 0.42900699
-0.011934 0.019131901 0.42900699
-0.0121845 0.0193849 0.42915401
-0.0126679 0.019863 0.42883101
-0.0136492 0.019611301 0.42871401
-0.0131523 0.0198508 0.42856699
-0.012908 0.020099699 0.428626
-0.0134131 0.020119 0.429037
-0.0136502 0.0198589 0.428743
-0.0124259 0.019869801 0.428978
-0.011934 0.019378301 0.42900699
-0.0121845 0.019631401 0.42915401
-0.0126679 0.0201093 0.42883101
-0.0129071 0.020344499 0.428597
-0.0131514 0.0200956 0.42853799
-0.0119584 0.018430401 0.42988801
-0.0124259 0.020116201 0.428978
-0.0121828 0.0198752 0.429095
-0.0119331 0.019623401 0.428978
-0.0116876 0.019378301 0.42900699
-0.0126661 0.0203529 0.42877299
-0.0131487 0.0203375 0.42844999
-0.0129062 0.020589299 0.42856699
-0.0134113 0.020362601 0.428978
-0.012425 0.0203612 0.428949
-0.0121812 0.020119 0.429037
-0.011686 0.019622 0.428949
-0.0119299 0.019864401 0.42886099
-0.0126661 0.020599101 0.42877299
-0.0129062 0.0208354 0.42856699
-0.0131487 0.0205836 0.42844999
-0.012182 0.020366799 0.429066
-0.012425 0.0206076 0.428949
-0.0119291 0.0201093 0.42883101
-0.011686 0.0198684 0.428949
-0.012667 0.0208469 0.42880201
-0.0131505 0.0208326 0.42850801
-0.0129062 0.0210816 0.42856699
-0.0134067 0.020602001 0.42883101
-0.012425 0.020854 0.428949
-0.0121812 0.0206118 0.429037
-0.0119291 0.020355601 0.42883101
-0.0116844 0.020112099 0.42888999
-0.0114443 0.019876599 0.42912501
-0.012667 0.021093201 0.42880201
-0.0131478 0.021074399 0.42842001
-0.0129053 0.0213263 0.42853799
-0.0134039 0.020843999 0.428743
-0.0117156 0.0189307 0.430035
-0.0121803 0.0208568 0.42900699
-0.0119299 0.0206034 0.42886099
-0.012425 0.0211004 0.428949
-0.0116836 0.020357 0.42886099
-0.0114436 0.020121699 0.429095
-0.0126661 0.021338001 0.42877299
-0.0131469 0.021319 0.42839101
-0.0129035 0.0215695 0.42847899
-0.012425 0.0213468 0.428949
-0.0121787 0.0211004 0.428949
-0.0119291 0.0208483 0.42883101
-0.0116836 0.0206034 0.42886099
-0.0114428 0.020366799 0.429066
-0.012667 0.0215858 0.42880201
-0.0131469 0.0215651 0.42839101
-0.0129027 0.0218141 0.42844999
-0.0117124 0.019172501 0.42991701
-0.0119258 0.021088799 0.42871401
-0.0116828 0.0208483 0.42883101
-0.012425 0.0215932 0.428949
-0.012177 0.021343799 0.42888999
-0.011442 0.0206118 0.429037
-0.012667 0.021832099 0.42880201
-0.0129018 0.022058699 0.42842001
-0.0121753 0.0215872 0.42883101
-0.0124242 0.021838101 0.42891899
-0.0119242 0.021332201 0.428655
-0.011682 0.021093201 0.42880201
-0.011442 0.020858301 0.429037
-0.012667 0.0220784 0.42880201
-0.0114702 0.0194274 0.43009299
-0.0119242 0.021578399 0.428655
-0.0116804 0.0213365 0.428743
-0.0114412 0.0211033 0.42900699
-0.0121762 0.0218351 0.42886099
-0.012425 0.022085899 0.428949
-0.0112048 0.0208754 0.429389
-0.0126575 0.022307901 0.42847899
-0.0116812 0.0215843 0.42877299
-0.0121762 0.022081399 0.42886099
-0.0119233 0.021823101 0.428626
-0.0124242 0.0223308 0.42891899
-0.0114396 0.0213468 0.428949
-0.011204 0.0211206 0.42936
-0.0114663 0.0196677 0.42994699
-0.0119225 0.0220678 0.428597
-0.0116796 0.021827601 0.42871401
-0.0114404 0.021594601 0.428978
-0.0112025 0.0213643 0.42930099
-0.012177 0.022329301 0.42888999
-0.012425 0.0225787 0.428949
-0.011214 0.0206457 0.429741
-0.0109664 0.021137901 0.429712
-0.0109687 0.020895399 0.4298
-0.0126566 0.022552401 0.42844999
-0.0116796 0.0220738 0.42871401
-0.0114396 0.021839499 0.428949
-0.0121753 0.022572501 0.42883101
-0.0119225 0.022314001 0.428597
-0.012425 0.0228251 0.428949
-0.0112017 0.021609399 0.429272
-0.0109634 0.021378901 0.42959401
-0.0116788 0.0223186 0.42868501
-0.0119209 0.0225571 0.42853799
-0.0114396 0.022085899 0.428949
-0.0112002 0.021853 0.42921299
-0.0109619 0.021622701 0.42953601
-0.0121745 0.022817301 0.42880201
-0.0107219 0.0206485 0.4298
-0.0109679 0.020647099 0.42977101
-0.0109702 0.0204044 0.42985901
-0.011217 0.0204044 0.42985901
-0.0107211 0.0213877 0.42977101
-0.0107197 0.021137901 0.429712
-0.0104743 0.021140801 0.42977101
-0.0107219 0.020895399 0.4298
-0.011678 0.022563299 0.428655
-0.0114381 0.022329301 0.42888999
-0.0112002 0.022099501 0.42921299
-0.0119193 0.022800099 0.42847899
-0.0121737 0.023062 0.42877299
-0.0109589 0.0218635 0.429418
-0.0107175 0.0216271 0.42962399
-0.0112209 0.0201644 0.43000501
-0.0109739 0.0201644 0.43000501
-0.0116772 0.0228079 0.428626
-0.0114373 0.022574101 0.42886099
-0.0119193 0.023046199 0.42847899
-0.0111979 0.022341499 0.42912501
-0.0109574 0.0221071 0.42936
-0.0104707 0.0216271 0.42962399
-0.0107145 0.021867899 0.429506
-0.0104743 0.0213877 0.42977101
-0.0116772 0.023054101 0.428626
-0.0114365 0.022818901 0.42883101
-0.0111979 0.022588 0.42912501
-0.0109537 0.0223461 0.42921299
-0.0119193 0.023292299 0.42847899
-0.012167 0.023295499 0.42853799
-0.0104679 0.021867899 0.429506
-0.0107043 0.022093499 0.429095
-0.0114365 0.0230652 0.42883101
-0.0116764 0.023298699 0.428597
-0.0111956 0.022829801 0.429037
-0.0119184 0.0235369 0.42844999
-0.010953 0.022591099 0.42918399
-0.01046 0.022097999 0.42918399
-0.0116764 0.0235449 0.428597
-0.0114365 0.0233115 0.42883101
-0.0111956 0.023076201 0.429037
-0.0109522 0.022836 0.42915401
-0.0106992 0.0225756 0.42888999
-0.0107013 0.0223339 0.428978
-0.0121662 0.0235401 0.42850801
-0.0102177 0.0221071 0.42936
-0.0104643 0.022353699 0.42936
-0.0111948 0.0233211 0.42900699
-0.0114365 0.023557801 0.42883101
-0.0116772 0.023792701 0.428626
-0.0109515 0.023081001 0.42912501
-0.0119217 0.023789501 0.42856699
-0.0104621 0.0225957 0.429272
-0.0106977 0.022818901 0.42883101
-0.0102177 0.022353699 0.42936
-0.0114373 0.023805801 0.42886099
-0.011678 0.0240406 0.428655
-0.0111941 0.0235659 0.428978
-0.01095 0.0233243 0.429066
-0.010697 0.0230636 0.42880201
-0.0104521 0.0228204 0.42886099
-0.00997114 0.022353699 0.42936
-0.0102177 0.022600301 0.42936
-0.0111948 0.0238139 0.42900699
-0.0109477 0.0235659 0.428978
-0.0114381 0.024053801 0.42888999
-0.0116772 0.0242851 0.428626
-0.0119217 0.024035599 0.42856699
-0.0102156 0.022842299 0.429272
-0.00997114 0.022600301 0.42936
-0.0104514 0.0230652 0.42883101
-0.0114381 0.0243001 0.42888999
-0.0111948 0.0240603 0.42900699
-0.0109455 0.023807401 0.42888999
-0.0106948 0.023305099 0.42871401
-0.01045 0.023308299 0.42877299
-0.0102093 0.023074601 0.42900699
-0.0099690901 0.022842299 0.429272
-0.0111941 0.0243051 0.428978
-0.0109462 0.024055401 0.42891899
-0.0106933 0.0237944 0.428655
-0.010694 0.023549801 0.42868501
-0.0114381 0.0245465 0.42888999
-0.0097219003 0.022840699 0.42924201
-0.0099684102 0.0230873 0.42924201
-0.0102079 0.0233179 0.428949
-0.0104493 0.023553001 0.428743
-0.0114389 0.0247945 0.42891899
-0.0111941 0.0245515 0.428978
-0.0109477 0.0243051 0.428978
-0.0106933 0.0240406 0.428655
-0.0102072 0.0235627 0.42891899
-0.0104493 0.0237992 0.428743
-0.0099670496 0.023330599 0.42918399
-0.0097219003 0.0230873 0.42924201
-0.0111948 0.0247996 0.42900699
-0.010947 0.024549801 0.428949
-0.0106933 0.024286799 0.428655
-0.0104493 0.024045501 0.428743
-0.0097205704 0.023330599 0.42918399
-0.0099677304 0.0235788 0.42921299
-0.0102065 0.023807401 0.42888999
-0.0111948 0.025046 0.42900699
-0.010947 0.024796201 0.428949
-0.0106933 0.024533 0.428655
-0.0104486 0.0242901 0.42871401
-0.0099677304 0.023825301 0.42921299
-0.0102072 0.024055401 0.42891899
-0.00972124 0.0235788 0.42921299
-0.0109462 0.0250409 0.42891899
-0.0106933 0.024779201 0.428655
-0.0104493 0.0245381 0.428743
-0.0102072 0.024301801 0.42891899
-0.0097205704 0.023823701 0.42918399
-0.0094740996 0.0235772 0.42918399
-0.0099677304 0.0240719 0.42921299
-0.0111856 0.025271701 0.428655
-0.0109462 0.0252873 0.42891899
-0.0106918 0.025022 0.428597
-0.0104486 0.0247826 0.42871401
-0.0102072 0.0245481 0.42891899
-0.0099670496 0.0243167 0.42918399
-0.0094740996 0.023823701 0.42918399
-0.0097192395 0.024066901 0.42912501
-0.0106911 0.0252665 0.42856699
-0.0109455 0.025531899 0.42888999
-0.0104478 0.025027201 0.42868501
-0.0102065 0.0247928 0.42888999
-0.0099663697 0.024561601 0.42915401
-0.0094728004 0.024066901 0.42912501
-0.0097238999 0.024325101 0.42932999
-0.0106904 0.0255109 0.42853799
-0.0104464 0.0252699 0.428626
-0.0102058 0.025037499 0.42886099
-0.0099649997 0.0248047 0.429095
-0.0094753904 0.0243201 0.42924201
-0.0097219003 0.0245666 0.42924201
-0.0106896 0.025755299 0.42850801
-0.0104478 0.0255196 0.42868501
-0.0109402 0.0257659 0.42868501
-0.0102058 0.0252838 0.42886099
-0.0099643199 0.0250495 0.429066
-0.0097205704 0.0248098 0.42918399
-0.0094715096 0.024556501 0.429066
-0.0092251003 0.024310101 0.429066
-0.0106904 0.026003201 0.42853799
-0.0104478 0.0257659 0.42868501
-0.0102058 0.0255301 0.42886099
-0.0099629601 0.0252924 0.42900699
-0.0097185802 0.025051201 0.429095
-0.0092263604 0.0245599 0.42912501
-0.0094695603 0.0247979 0.428978
-0.0104478 0.0260121 0.42868501
-0.0102058 0.0257765 0.42886099
-0.0099622803 0.0255371 0.428978
-0.0097159203 0.0252907 0.428978
-0.0094669703 0.025037499 0.42886099
-0.0092288796 0.024813199 0.42924201
-0.0089823697 0.0245666 0.42924201
-0.0106948 0.026260201 0.42871401
-0.0104478 0.0262584 0.42868501
-0.0102065 0.0260246 0.42888999
-0.0099622803 0.0257835 0.428978
-0.0097139301 0.025531899 0.42888999
-0.0094650304 0.0252786 0.42877299
-0.0089829899 0.0248149 0.429272
-0.00922825 0.025057999 0.42921299
-0.0102058 0.026269101 0.42886099
-0.0104486 0.0265064 0.42871401
-0.0099615902 0.026028199 0.428949
-0.0097126001 0.025774701 0.42883101
-0.0094630802 0.0255196 0.42868501
-0.0092213098 0.025285499 0.42888999
-0.0089848302 0.025066599 0.42936
-0.0087382598 0.02482 0.42936
-0.0102065 0.0265173 0.42888999
-0.0099615902 0.0262745 0.428949
-0.0097126001 0.026021 0.42883101
-0.0094624301 0.0257641 0.428655
-0.0092200497 0.025528399 0.42883101
-0.0087382598 0.025066599 0.42936
-0.0089836 0.025309799 0.42930099
-0.0099615902 0.0265209 0.428949
-0.0102065 0.0267637 0.42888999
-0.0097126001 0.026267299 0.42883101
-0.0092187896 0.025771201 0.42877299
-0.0094624301 0.026010299 0.428655
-0.0089768497 0.0255371 0.428978
-0.00873766 0.0253115 0.42932999
-0.0099615902 0.0267673 0.428949
-0.0097105997 0.026508201 0.428743
-0.0094617903 0.026254799 0.428626
-0.0092181601 0.026015701 0.428743
-0.0089774597 0.025785301 0.42900699
-0.0087334802 0.025545901 0.42912501
-0.0099622803 0.0270156 0.428978
-0.0097112702 0.0267563 0.42877299
-0.0102016 0.026997101 0.42868501
-0.0094611403 0.026499201 0.428597
-0.0092175202 0.026260201 0.42871401
-0.0089768497 0.0260299 0.428978
-0.00849168 0.0255598 0.42936
-0.0087382598 0.0258065 0.42936
-0.0099629601 0.0272638 0.42900699
-0.0097099403 0.0269989 0.42871401
-0.0092168897 0.0265046 0.42868501
-0.0094604902 0.0267435 0.42856699
-0.0089762304 0.0262745 0.428949
-0.00873766 0.0260513 0.42932999
-0.0084928405 0.02581 0.429418
-0.0097139301 0.027256399 0.42888999
-0.0094598401 0.0269878 0.42853799
-0.0092168897 0.026750799 0.42868501
-0.0089750001 0.0265173 0.42888999
-0.0087370602 0.0262961 0.42930099
-0.0082479203 0.025815301 0.429506
-0.0084945802 0.026062001 0.429506
-0.0097126001 0.027499 0.42883101
-0.0094598401 0.027233999 0.42853799
-0.0092156297 0.026993399 0.428626
-0.0089756204 0.026765499 0.42891899
-0.00873587 0.0265391 0.42924201
-0.0084957397 0.026312299 0.42956501
-0.00824848 0.0260638 0.42953601
-0.0094598401 0.027480099 0.42853799
-0.0092162602 0.0272414 0.428655
-0.0089743901 0.0270082 0.42886099
-0.0087346695 0.026782 0.42918399
-0.0084910998 0.0265445 0.42932999
-0.00800345 0.026069099 0.42962399
-0.0082501797 0.0263159 0.42962399
-0.0094591901 0.0277244 0.42850801
-0.0092162602 0.027487701 0.428655
-0.0089743901 0.027254499 0.42886099
-0.0087328795 0.0270229 0.429095
-0.0084876101 0.026780101 0.42915401
-0.0082473597 0.026553599 0.42947701
-0.00800345 0.0263159 0.42962399
-0.0092162602 0.0277339 0.428655
-0.0089737801 0.027499 0.42883101
-0.0087322798 0.027267599 0.429066
-0.0084864497 0.0270229 0.429095
-0.0080018099 0.0265572 0.42953601
-0.0094637303 0.0279839 0.42871401
-0.0092162602 0.0279801 0.428655
-0.0089743901 0.027747201 0.42886099
-0.0087310905 0.0275102 0.42900699
-0.0084864497 0.027269401 0.429095
-0.0082372101 0.0267673 0.428949
-0.00823496 0.0270063 0.42883101
-0.00800345 0.0268094 0.42962399
-0.0077567198 0.0265627 0.42962399
-0.0092162602 0.028226299 0.428655
-0.0089750001 0.0279954 0.42888999
-0.0087310905 0.0277567 0.42900699
-0.0084858704 0.027513999 0.429066
-0.00823496 0.0272526 0.42883101
-0.0077567198 0.0268094 0.42962399
-0.0094630802 0.0282283 0.42868501
-0.0092168897 0.0284745 0.42868501
-0.0089750001 0.0282418 0.42888999
-0.0087310905 0.0280031 0.42900699
-0.00848471 0.0277567 0.42900699
-0.00823496 0.027499 0.42883101
-0.0079919603 0.0270174 0.42900699
-0.0079908697 0.0272601 0.428949
-0.0089756204 0.0284901 0.42891899
-0.0084841298 0.0280012 0.428978
-0.0087310905 0.0282495 0.42900699
-0.0082332697 0.027739599 0.428743
-0.00798978 0.027502701 0.42888999
-0.0077551301 0.0272974 0.42953601
-0.0075089601 0.027052499 0.42956501
-0.0077493 0.0270303 0.42921299
-0.0089707002 0.028720699 0.42868501
-0.00873168 0.028497901 0.429037
-0.0084835496 0.0282456 0.428949
-0.0082326997 0.0279839 0.42871401
-0.0079886802 0.027745301 0.42883101
-0.0077487701 0.0275215 0.42918399
-0.0084823901 0.0284881 0.42888999
-0.0087322798 0.028746299 0.429066
-0.0082326997 0.0282302 0.42871401
-0.0079886802 0.0279916 0.42883101
-0.0077482401 0.0277662 0.42915401
-0.0075105 0.027551699 0.42965299
-0.0075094802 0.027301099 0.42959401
-0.0072637601 0.027304901 0.42965299
-0.0084818099 0.028732499 0.42886099
-0.00823157 0.0284725 0.428655
-0.00798814 0.028236 0.42880201
-0.0077471798 0.0280088 0.429095
-0.0084823901 0.028980801 0.42888999
-0.0082310103 0.028716801 0.428626
-0.0087328795 0.0289947 0.429095
-0.0079875896 0.028480301 0.42877299
-0.00774612 0.0282514 0.429037
-0.0072637601 0.027551699 0.42965299
-0.0075099901 0.027796499 0.42962399
-0.0072647501 0.027802199 0.429712
-0.0084818099 0.0292252 0.42886099
-0.0082304496 0.028960999 0.428597
-0.0079864999 0.0287227 0.42871401
-0.0077455901 0.0284959 0.42900699
-0.0075079398 0.0280357 0.429506
-0.0075053698 0.0282727 0.42936
-0.0087233204 0.0292092 0.428626
-0.0082304496 0.0292072 0.428597
-0.0079870401 0.028970901 0.428743
-0.0077450601 0.0287404 0.428978
-0.00750332 0.0285115 0.42924201
-0.00701989 0.027809801 0.429829
-0.0072667301 0.0280567 0.429829
-0.0070184502 0.028051 0.429741
-0.0084777502 0.0294574 0.428655
-0.0082298797 0.0294514 0.42856699
-0.0079864999 0.0292152 0.42871401
-0.0077450601 0.0289868 0.428978
-0.0075028101 0.028756101 0.42921299
-0.0072617698 0.0282843 0.42953601
-0.0072592902 0.028521299 0.429389
-0.0079870401 0.0294635 0.428743
-0.0077445302 0.0292312 0.428949
-0.00750229 0.0290007 0.42918399
-0.0072578001 0.028762 0.42930099
-0.0067698001 0.0280433 0.42962399
-0.0070165298 0.0282901 0.42962399
-0.0067702699 0.028292 0.42965299
-0.0084777502 0.0297036 0.428655
-0.00823214 0.0297057 0.42868501
-0.0084765898 0.0299458 0.428597
-0.0079870401 0.0297097 0.428743
-0.0077445302 0.0294776 0.428949
-0.00750075 0.029241201 0.429095
-0.00725532 0.028998701 0.42915401
-0.0070074298 0.028499801 0.429066
-0.0077455901 0.029727999 0.42900699
-0.0079875896 0.029958099 0.42877299
-0.0075002401 0.029485701 0.429066
-0.00725433 0.029241201 0.429095
-0.0070050298 0.0287365 0.42891899
-0.0065244101 0.028295901 0.429712
-0.00677073 0.028540799 0.429683
-0.00652397 0.028540799 0.429683
-0.00823157 0.0299499 0.428655
-0.0082310103 0.030193999 0.428626
-0.0077450601 0.029972401 0.428978
-0.0072528399 0.029481599 0.42900699
-0.00750075 0.029734099 0.429095
-0.00700359 0.0292232 0.42883101
-0.0070040701 0.028978899 0.42886099
-0.0067605502 0.028744301 0.429037
-0.00725334 0.0297301 0.429037
-0.00750075 0.0299806 0.429095
-0.0077466499 0.030224999 0.429066
-0.00798814 0.030206401 0.42880201
-0.0070026298 0.0294655 0.42877299
-0.0067596301 0.0289868 0.428978
-0.0082310103 0.0304402 0.428626
-0.0079886802 0.0304548 0.42883101
-0.0075012702 0.0302292 0.42912501
-0.0072518499 0.0299704 0.428949
-0.0070026298 0.0297118 0.42877299
-0.00675778 0.0292252 0.42886099
-0.00675778 0.0294715 0.42886099
-0.0065155001 0.0287502 0.42912501
-0.0065172799 0.0290046 0.42924201
-0.0070021502 0.029956 0.428743
-0.0072518499 0.0302168 0.428949
-0.0075017801 0.030477701 0.42915401
-0.0077466499 0.0304715 0.429066
-0.0077471798 0.030719999 0.429095
-0.0067573199 0.029715801 0.42883101
-0.00651595 0.0292452 0.42915401
-0.0079848599 0.030686401 0.428626
-0.0075017801 0.030724199 0.42915401
-0.0072523402 0.030465201 0.428978
-0.0070016701 0.0302002 0.42871401
-0.0067573199 0.029962201 0.42883101
-0.0065150498 0.029487699 0.429095
-0.00651416 0.0297301 0.429037
-0.00627077 0.028758099 0.42924201
-0.0062724901 0.0290126 0.42936
-0.0062750601 0.0292712 0.42953601
-0.0070016701 0.0304465 0.42871401
-0.0067568501 0.030206401 0.42880201
-0.0072523402 0.030711601 0.428978
-0.0065137199 0.0299745 0.42900699
-0.0062742 0.029513899 0.42947701
-0.0077387001 0.0309326 0.428626
-0.0072518499 0.0309559 0.428949
-0.0070016701 0.0306927 0.42871401
-0.0067568501 0.0304527 0.42880201
-0.0065137199 0.0302209 0.42900699
-0.0062724901 0.0297525 0.42936
-0.0062716301 0.029995 0.42930099
-0.0060283798 0.0290245 0.42953601
-0.0060283798 0.0292712 0.42953601
-0.0060283798 0.0295179 0.42953601
-0.0057817101 0.0292712 0.42953601
-0.0070016701 0.030939 0.42871401
-0.0067573199 0.030701101 0.42883101
-0.0065132701 0.030465201 0.428978
-0.00749357 0.030936901 0.42868501
-0.00627077 0.030237401 0.42924201
-0.0060259099 0.0297525 0.42936
-0.0057817101 0.0295179 0.42953601
-0.0072558201 0.0312194 0.42918399
-0.0070026298 0.031189499 0.42877299
-0.00675778 0.0309496 0.42886099
-0.00651416 0.030715801 0.429037
-0.0062694899 0.030477701 0.42915401
-0.0060242601 0.0299909 0.42924201
-0.0060242601 0.030237401 0.42924201
-0.0057813101 0.0297626 0.429506
-0.0055346498 0.0295159 0.429506
-0.0070016701 0.0314315 0.42871401
-0.0067573199 0.0311938 0.42883101
-0.0065137199 0.0309602 0.42900699
-0.0062694899 0.030724199 0.42915401
-0.0060217902 0.0304715 0.429066
-0.0055346498 0.0297626 0.429506
-0.00675778 0.031442199 0.42886099
-0.0065146098 0.031210899 0.429066
-0.0062694899 0.030970801 0.42915401
-0.00602344 0.030726301 0.42918399
-0.0057730102 0.0299663 0.42888999
-0.00577262 0.030210599 0.42886099
-0.0067554698 0.031677701 0.42871401
-0.0065146098 0.031457301 0.429066
-0.0062694899 0.031217299 0.42915401
-0.00602344 0.0309729 0.42918399
-0.00577222 0.030701101 0.42883101
-0.00577222 0.0304548 0.42883101
-0.00651595 0.031710301 0.42915401
-0.0062699202 0.031465899 0.42918399
-0.0060217902 0.031210899 0.429066
-0.00577222 0.0309474 0.42883101
-0.0055267098 0.0299663 0.42888999
-0.0052807601 0.029968301 0.42891899
-0.0055270898 0.030214701 0.42891899
-0.0055263299 0.030456901 0.42886099
-0.0062711998 0.031718899 0.429272
-0.0060222 0.031459499 0.429095
-0.0055263299 0.0309496 0.42886099
-0.0055267098 0.030705299 0.42888999
-0.0057714302 0.031189499 0.42877299
-0.0065168398 0.031961098 0.42921299
-0.0062720599 0.031969901 0.42932999
-0.0060222 0.031705901 0.429095
-0.0057718302 0.0314379 0.42880201
-0.0055259499 0.0311938 0.42883101
-0.0052825701 0.030224999 0.429066
-0.00528148 0.030711601 0.428978
-0.0052851001 0.030486099 0.429272
-0.00602262 0.031954601 0.42912501
-0.0057718302 0.031684201 0.42880201
-0.00528148 0.030958001 0.428978
-0.0055263299 0.031442199 0.42886099
-0.00528148 0.031204401 0.428978
-0.0062724901 0.032218698 0.42936
-0.0060222 0.032198898 0.429095
-0.00577222 0.0319327 0.42883101
-0.0055267098 0.031690799 0.42888999
-0.0052818502 0.031452999 0.42900699
-0.0050385701 0.0302395 0.429272
-0.0050385701 0.030486099 0.429272
-0.0050382302 0.030730501 0.42924201
-0.00503788 0.030974999 0.42921299
-0.0047917198 0.030484 0.42924201
-0.00577222 0.032179099 0.42883101
-0.0060217902 0.032443099 0.429066
-0.0055270898 0.031939302 0.42891899
-0.0050371899 0.031217299 0.42915401
-0.0052822102 0.031701598 0.429037
-0.0050371899 0.031463802 0.42915401
-0.0062639099 0.0324209 0.42877299
-0.00577262 0.032427602 0.42886099
-0.0055270898 0.0321857 0.42891899
-0.0052825701 0.031950202 0.429066
-0.0050375401 0.031712402 0.42918399
-0.0047913902 0.0307284 0.42921299
-0.0047913902 0.030974999 0.42921299
-0.0045448998 0.0307284 0.42921299
-0.0045445901 0.0309729 0.42918399
-0.0047904099 0.0312151 0.42912501
-0.0057718302 0.0326695 0.42880201
-0.00552746 0.0324343 0.428949
-0.0062639099 0.032667201 0.42877299
-0.00601767 0.032667201 0.42877299
-0.0052825701 0.032196701 0.429066
-0.0047904099 0.0314616 0.42912501
-0.0045445901 0.0312194 0.42918399
-0.0050375401 0.031959001 0.42918399
-0.0047913902 0.0317146 0.42921299
-0.0065097101 0.032664999 0.428743
-0.0065092598 0.0324165 0.42871401
-0.0062639099 0.032913499 0.42877299
-0.0065097101 0.032172401 0.428743
-0.00577222 0.032917999 0.42883101
-0.00552746 0.032680601 0.428949
-0.0052829301 0.0324453 0.429095
-0.00503788 0.032207701 0.42921299
-0.0047904099 0.031954601 0.42912501
-0.0042987 0.0309771 0.42924201
-0.0040521901 0.0309771 0.42924201
-0.0042987 0.031223699 0.42924201
-0.0045408602 0.031440102 0.42883101
-0.00552784 0.032929301 0.428978
-0.0060172598 0.032911301 0.428743
-0.00577222 0.0331643 0.42883101
-0.0052832901 0.032694101 0.42912501
-0.0065088202 0.032906801 0.42868501
-0.0060180798 0.033162098 0.42880201
-0.0047900798 0.032198898 0.429095
-0.0050375401 0.032451998 0.42918399
-0.0042978199 0.031463802 0.42915401
-0.0045411699 0.031688601 0.42886099
-0.0040521901 0.031223699 0.42924201
-0.0045417901 0.031939302 0.42891899
-0.0062647699 0.0331643 0.42883101
-0.0062634801 0.033403799 0.428743
-0.0055286 0.0331802 0.429037
-0.00528401 0.0329451 0.42918399
-0.0047897501 0.032443099 0.429066
-0.0050375401 0.032698501 0.42918399
-0.0045411699 0.0321813 0.42886099
-0.0040521901 0.031470198 0.42924201
-0.00380568 0.031223699 0.42924201
-0.0042945798 0.031686399 0.42883101
-0.0052843802 0.033193801 0.42921299
-0.0060197301 0.033417501 0.42891899
-0.0057730102 0.033415198 0.42888999
-0.0055293501 0.033431198 0.429095
-0.0050385701 0.032951798 0.429272
-0.0047897501 0.032689601 0.429066
-0.0045408602 0.0324254 0.42883101
-0.00380568 0.031470198 0.42924201
-0.0040513598 0.031710301 0.42915401
-0.0042945798 0.0319327 0.42883101
-0.0040494199 0.0319415 0.428949
-0.0042948802 0.0321813 0.42886099
-0.0060217902 0.033675399 0.429066
-0.00528546 0.033447299 0.42930099
-0.0047917198 0.0329496 0.42924201
-0.0050392598 0.033202901 0.42932999
-0.0045408602 0.032671701 0.42883101
-0.0040494199 0.032187901 0.428949
-0.0042948802 0.032427602 0.42886099
-0.0038049 0.031710301 0.42915401
-0.0047923699 0.0332007 0.42930099
-0.00503961 0.033451799 0.42936
-0.0057742 0.033668499 0.428978
-0.0055301101 0.033682302 0.42915401
-0.0052861799 0.033698399 0.42936
-0.0045411699 0.032920301 0.42886099
-0.0042948802 0.032673899 0.42886099
-0.0038049 0.031956799 0.42915401
-0.0035584399 0.031710301 0.42915401
-0.0038049 0.032203302 0.42915401
-0.0040494199 0.0324343 0.428949
-0.00479205 0.033445001 0.429272
-0.00504064 0.033705398 0.42944801
-0.00454148 0.033168901 0.42888999
-0.0042945798 0.032917999 0.42883101
-0.0040497002 0.032682899 0.428978
-0.0038049 0.032449801 0.42915401
-0.0035582001 0.031954601 0.42912501
-0.0047927001 0.0336961 0.42932999
-0.0055267098 0.033907901 0.42888999
-0.0052796798 0.033903301 0.42883101
-0.00454148 0.033415198 0.42888999
-0.0042954702 0.033171099 0.42891899
-0.0040497002 0.032929301 0.428978
-0.00355796 0.032198898 0.429095
-0.00331153 0.0319524 0.429095
-0.0038046399 0.032694101 0.42912501
-0.00331153 0.032198898 0.429095
-0.0035574699 0.032440901 0.429037
-0.0042954702 0.033417501 0.42891899
-0.0045411699 0.033659302 0.42886099
-0.0040502502 0.0331802 0.429037
-0.0038046399 0.032940499 0.42912501
-0.0035569801 0.032682899 0.428978
-0.00331153 0.0324453 0.429095
-0.00478811 0.033910301 0.42891899
-0.00503409 0.033907901 0.42888999
-0.0045405501 0.033900999 0.42880201
-0.0042954702 0.033663899 0.42891899
-0.0040502502 0.033426698 0.429037
-0.0038049 0.0331893 0.42915401
-0.0035574699 0.032933801 0.429037
-0.00306511 0.032198898 0.429095
-0.0030648999 0.032443099 0.429066
-0.00330836 0.032660499 0.42868501
-0.00405053 0.033675399 0.429066
-0.0042954702 0.033910301 0.42891899
-0.0038049 0.033435799 0.42915401
-0.0035574699 0.0331802 0.429037
-0.00330836 0.032906801 0.42868501
-0.0030646899 0.0326874 0.429037
-0.0028184899 0.032443099 0.429066
-0.0047877901 0.0341543 0.42888999
-0.0045420998 0.034159001 0.428949
-0.0042954702 0.034156598 0.42891899
-0.00405053 0.033921901 0.429066
-0.0038049 0.033682302 0.42915401
-0.00355771 0.033429001 0.429066
-0.0033088101 0.033157501 0.428743
-0.0028182899 0.0326874 0.429037
-0.00306238 0.032908998 0.42871401
-0.0038051601 0.033931199 0.42918399
-0.00355771 0.033675399 0.429066
-0.0040513598 0.034175299 0.42915401
-0.0042951698 0.034400702 0.42888999
-0.0033090401 0.033406101 0.42877299
-0.00306259 0.033157501 0.428743
-0.0028182899 0.032933801 0.429037
-0.0025718999 0.0326874 0.429037
-0.0040488699 0.034400702 0.42888999
-0.0038054199 0.03418 0.42921299
-0.0035572301 0.0339172 0.42900699
-0.0033090401 0.033652399 0.42877299
-0.0030628 0.033406101 0.42877299
-0.0025718999 0.032933801 0.429037
-0.00281714 0.033166599 0.42886099
-0.0035574699 0.034166001 0.429037
-0.0033088101 0.033896301 0.428743
-0.00380568 0.034428898 0.42924201
-0.00281714 0.0334129 0.42886099
-0.0030628 0.033652399 0.42877299
-0.0025718999 0.0331802 0.429037
-0.0023255099 0.032933801 0.429037
-0.0038023 0.0346446 0.42886099
-0.00355771 0.034414802 0.429066
-0.0033088101 0.034142599 0.428743
-0.0030628 0.0338987 0.42877299
-0.00281733 0.0336616 0.42888999
-0.0023255099 0.0331802 0.429037
-0.0025717299 0.0334244 0.42900699
-0.0033090401 0.034391198 0.42877299
-0.00355771 0.0346612 0.429066
-0.0030632201 0.034149598 0.42883101
-0.00281733 0.033907901 0.42888999
-0.0025717299 0.033670802 0.42900699
-0.00232535 0.0334244 0.42900699
-0.0020795499 0.033186998 0.42912501
-0.0035560101 0.034890998 0.42886099
-0.0033088101 0.034635201 0.428743
-0.0030632201 0.0343959 0.42883101
-0.0028175199 0.034156598 0.42891899
-0.0025718999 0.033919498 0.429037
-0.00232456 0.033659302 0.42886099
-0.0020795499 0.033433501 0.42912501
-0.0030632201 0.034642301 0.42883101
-0.0033090401 0.034883801 0.42877299
-0.0028179099 0.034407701 0.428978
-0.0025717299 0.034163602 0.42900699
-0.0023247199 0.033907901 0.42888999
-0.0020791199 0.0336731 0.429037
-0.00183311 0.033186998 0.42912501
-0.00183311 0.033433501 0.42912501
-0.0030634301 0.034890998 0.42886099
-0.0033094899 0.0351349 0.42883101
-0.0028179099 0.034654099 0.428978
-0.0025718999 0.034412399 0.429037
-0.0023247199 0.0341543 0.42888999
-0.0020771299 0.033887099 0.428626
-0.00158666 0.033433501 0.42912501
-0.00183311 0.033679999 0.42912501
-0.0028180999 0.0349029 0.42900699
-0.0030632201 0.0351349 0.42883101
-0.0025720799 0.0346612 0.429066
-0.0023248801 0.034403 0.42891899
-0.00207699 0.034130901 0.428597
-0.00183273 0.033919498 0.429037
-0.00158666 0.033679999 0.42912501
-0.0028182899 0.035151701 0.429037
-0.0030630101 0.035378799 0.42880201
-0.0025722601 0.034910101 0.429095
-0.00232535 0.034656499 0.42900699
-0.0020772701 0.034381799 0.428655
-0.0018309701 0.0341333 0.428626
-0.00158612 0.033914901 0.428978
-0.0025724301 0.035158999 0.42912501
-0.00232519 0.034900501 0.428978
-0.0028184899 0.035400599 0.429066
-0.0030630101 0.0356251 0.42880201
-0.0020772701 0.034628 0.428655
-0.00183123 0.034384198 0.42868501
-0.00158569 0.034152001 0.42886099
-0.0013405 0.033933502 0.42921299
-0.0028184899 0.035647102 0.429066
-0.00257261 0.035407901 0.42915401
-0.0023250401 0.0351445 0.428949
-0.0020775599 0.034878999 0.42871401
-0.00183135 0.034632798 0.42871401
-0.0015855799 0.0343959 0.42883101
-0.0013405 0.03418 0.42921299
-0.00232535 0.035395801 0.42900699
-0.0020772701 0.035120498 0.428655
-0.00257314 0.035661701 0.42924201
-0.00281675 0.035871401 0.42880201
-0.00183148 0.034881402 0.428743
-0.0015858 0.034646999 0.42888999
-0.00134031 0.034421802 0.42915401
-0.00109401 0.03418 0.42921299
-0.00109401 0.033933502 0.42921299
-0.00232535 0.035642199 0.42900699
-0.0025736601 0.035915598 0.42932999
-0.0020775599 0.035371501 0.42871401
-0.0018316 0.035130098 0.42877299
-0.0015859 0.034895699 0.42891899
-0.00134031 0.0346683 0.42915401
-0.00109408 0.034428898 0.42924201
-0.0020772701 0.0356129 0.428655
-0.00183173 0.035378799 0.42880201
-0.00232424 0.035871401 0.42880201
-0.0025701399 0.0361128 0.428743
-0.00158612 0.0351469 0.428978
-0.00134031 0.0349149 0.42915401
-0.00109371 0.034663599 0.429095
-0.000847861 0.034194 0.429389
-0.000847861 0.0344407 0.429389
-0.0018316 0.035622701 0.42877299
-0.00158623 0.035395801 0.42900699
-0.00134022 0.035158999 0.42912501
-0.00109393 0.034917202 0.42918399
-0.00084762898 0.0346778 0.429272
-0.0018316 0.035868999 0.42877299
-0.00207685 0.035851799 0.42856699
-0.0020767001 0.0360955 0.42853799
-0.00158634 0.035644598 0.429037
-0.0023239199 0.0361128 0.428743
-0.00134022 0.035405401 0.42912501
-0.00109371 0.0351566 0.429095
-0.00084670098 0.0348862 0.42880201
-0.00060126698 0.0344407 0.429389
-0.00060126698 0.034194 0.429389
-0.000601226 0.0346849 0.42936
-0.00158634 0.035891101 0.429037
-0.0018316 0.036115199 0.42877299
-0.00134041 0.035656799 0.42918399
-0.00109378 0.035405401 0.42912501
-0.00084681698 0.035137299 0.42886099
-0.00183148 0.036359001 0.428743
-0.00158623 0.036134999 0.42900699
-0.00109371 0.035649501 0.429095
-0.00134013 0.035896 0.429095
-0.00084681698 0.035383601 0.42886099
-0.00060052698 0.035137299 0.42886099
-0.00060044503 0.0348862 0.42880201
-0.000354819 0.0344548 0.42956501
-0.000354819 0.0347015 0.42956501
-0.00035440701 0.034907699 0.429066
-0.00134022 0.036144901 0.42912501
-0.00109341 0.035886101 0.428978
-0.00158536 0.036361501 0.42877299
-0.00084670098 0.0356251 0.42880201
-0.00060056802 0.0353861 0.42888999
-0.00158536 0.036607798 0.42877299
-0.00109348 0.036134999 0.42900699
-0.00134022 0.0363914 0.42912501
-0.00084658602 0.035866499 0.428743
-0.000600486 0.0356276 0.42883101
-0.00035443099 0.0351566 0.429095
-0.00035440701 0.035400599 0.429066
-0.000108154 0.034464199 0.429683
-0.000108147 0.034708701 0.42965299
-0.000108095 0.0349387 0.42944801
-0.00109333 0.036376499 0.428949
-0.00084647001 0.036107801 0.42868501
-0.00133912 0.036607798 0.42877299
-0.00060052698 0.0358763 0.42886099
-0.000354383 0.035644598 0.429037
-0.00133921 0.036856599 0.42880201
-0.00109326 0.036620401 0.42891899
-0.00084647001 0.036354098 0.42868501
-0.00060040399 0.036115199 0.42877299
-0.000354358 0.035888601 0.42900699
-0.000108102 0.035187799 0.42947701
-0.000108065 0.0354224 0.42932999
-0.000108065 0.035668999 0.42932999
0.000138608 0.034464199 0.429683
0.000138599 0.034708701 0.42965299
0.00013858 0.0349507 0.42959401
0.00038531699 0.034706298 0.42962399
0.000138523 0.035183001 0.429418
-0.00084629602 0.0365928 0.428597
-0.00060032198 0.036356598 0.42871401
-0.00109348 0.036874302 0.42900699
-0.000354358 0.036134999 0.42900699
-0.000108036 0.035905801 0.42921299
-0.00133931 0.037105501 0.42883101
-0.00109303 0.037105501 0.42883101
-0.00084629602 0.036839001 0.428597
-0.00060036301 0.036605299 0.428743
-0.00035433401 0.036378998 0.428978
-0.000108021 0.036147401 0.42915401
0.000385238 0.035192601 0.42953601
0.000138476 0.035417601 0.429272
0.000138476 0.0356641 0.429272
0.00038508099 0.035424799 0.42936
0.00013845701 0.035905801 0.42921299
0.00038526501 0.034948301 0.42956501
0.000632348 0.034969799 0.429829
-0.00084618002 0.037080102 0.42853799
-0.00060032198 0.0368491 0.42871401
-0.00035431 0.036622901 0.428949
-0.000108006 0.0363889 0.429095
0.00013844699 0.0361499 0.42918399
-0.00109296 0.037349202 0.42880201
-0.00084675901 0.037351798 0.42883101
-0.00060036301 0.037097901 0.428743
-0.00035431 0.036869202 0.428949
-0.000107999 0.036632899 0.429066
0.000138409 0.0363864 0.429066
0.000632348 0.0352167 0.429829
0.000631959 0.035441801 0.42956501
0.00038463299 0.035629999 0.42886099
0.00063161401 0.035668999 0.42932999
0.000384607 0.035873901 0.42883101
0.00087919401 0.034969799 0.429829
0.00087925402 0.035219099 0.42985901
-0.00060040399 0.037346698 0.42877299
-0.00035433401 0.0371182 0.428978
-0.000107999 0.036879301 0.429066
0.00013838999 0.0366279 0.42900699
0.00038457999 0.036117699 0.42880201
-0.000354383 0.037369698 0.429037
0.000138371 0.036869202 0.428949
-0.000107991 0.0371233 0.429037
0.000384554 0.036361501 0.42877299
0.0011261899 0.035221498 0.42988801
0.00087931502 0.0354684 0.42988801
0.00087847398 0.035681199 0.42947701
0.00063092302 0.0358763 0.42886099
0.00087811402 0.035913199 0.42930099
0.00063083699 0.036117699 0.42880201
0.0011258899 0.035458699 0.42977101
-0.00035431 0.0376084 0.428949
0.000138381 0.0371182 0.428978
-0.000108014 0.037377398 0.42912501
0.00038447499 0.036600299 0.42868501
0.000384449 0.036844 0.428655
0.00063074997 0.036359001 0.428743
-0.000108036 0.037631601 0.42921299
0.000384449 0.037090201 0.428655
0.000138362 0.037359498 0.42891899
0.00063074997 0.036605299 0.428743
0.00137289 0.035463601 0.429829
0.00112543 0.035691001 0.42959401
0.00112496 0.035923 0.429418
0.00087745301 0.0361326 0.428978
0.00112466 0.036159799 0.42930099
0.00087733299 0.036373999 0.42891899
0.00161973 0.035463601 0.429829
0.00137289 0.035710499 0.429829
-0.00035423701 0.037847001 0.42886099
0.000138362 0.0376058 0.42891899
0.000384449 0.037336498 0.428655
0.00063070701 0.0368491 0.42871401
0.000630664 0.037092801 0.42868501
0.00087727298 0.036617801 0.42888999
-0.000108065 0.037888501 0.42932999
0.00013840001 0.037862599 0.429037
0.00063070701 0.037341598 0.42871401
0.00038442199 0.037580099 0.428626
0.00087721302 0.036861699 0.42886099
0.00161929 0.035700701 0.429712
0.00137195 0.035932802 0.42953601
0.0013712 0.036159799 0.42930099
0.0011241999 0.0363914 0.42912501
0.00137064 0.0363914 0.42912501
0.00112412 0.036635399 0.429095
0.00186722 0.035722699 0.42997599
0.00161863 0.035932802 0.42953601
-0.00010794 0.038090799 0.42883101
0.00013833299 0.038090799 0.42883101
0.00038437001 0.037821099 0.42856699
0.00063074997 0.037590399 0.428743
0.00087721302 0.037108 0.42886099
0.00087721302 0.037354399 0.42886099
0.00112396 0.036876801 0.429037
0.00087727298 0.0376033 0.42888999
0.00063074997 0.037836701 0.428743
0.00038431701 0.038062099 0.42850801
0.00112389 0.0371207 0.42900699
0.00186722 0.0359696 0.42997599
0.00161818 0.0361696 0.429418
0.00161763 0.036403801 0.429272
0.00137045 0.036632899 0.429066
0.00137054 0.036881901 0.429095
0.0021142899 0.035725102 0.43000501
0.00211415 0.0359696 0.42997599
0.00186543 0.036182001 0.42956501
0.00063070701 0.038080301 0.42871401
0.000877393 0.037854798 0.428949
0.00112396 0.037369698 0.429037
0.00112396 0.0376161 0.429037
0.00136998 0.037359498 0.42891899
0.00137017 0.0371182 0.428978
0.0011241999 0.037870299 0.42912501
0.00136998 0.0376058 0.42891899
0.00087745301 0.0381038 0.428978
0.00063083699 0.0383345 0.42880201
0.0021138601 0.036211699 0.42991701
0.00236076 0.035964701 0.42991701
0.00186454 0.0364113 0.42936
0.0023604301 0.0362067 0.42985901
0.0021118401 0.036423799 0.429506
0.00087757298 0.0383555 0.429037
0.00112404 0.038111601 0.429066
0.00137017 0.037857398 0.428978
0.0016150899 0.037577499 0.428597
0.0016149801 0.037328798 0.42856699
0.0016150899 0.037085202 0.428597
0.00112427 0.038365901 0.42915401
0.00137007 0.0381012 0.428949
0.0016149801 0.037821099 0.42856699
0.00087751303 0.038599201 0.42900699
0.00063092302 0.038586002 0.42886099
0.00235995 0.036446199 0.42977101
0.00260676 0.036199301 0.42977101
0.00211083 0.0366529 0.42930099
0.0026062301 0.0364387 0.429683
0.00235834 0.036667999 0.42947701
0.00112466 0.038625699 0.42930099
0.00137007 0.038347598 0.428949
0.00186135 0.037333898 0.428626
0.00186161 0.037585299 0.42868501
0.0018614799 0.0378289 0.428655
0.0016149801 0.0380673 0.42856699
0.00186123 0.037085202 0.428597
0.0016150899 0.036839001 0.428597
0.0016149801 0.036590301 0.42856699
0.00186135 0.036841501 0.428626
0.00136961 0.038580801 0.42880201
0.00161487 0.0383108 0.42853799
0.00186174 0.038080301 0.42871401
0.00087697298 0.038821802 0.428743
0.00112335 0.038827099 0.42880201
0.00260534 0.036672998 0.42953601
0.00285455 0.0364586 0.42991701
0.0021086601 0.036861699 0.42886099
0.0023570501 0.0368945 0.42924201
0.00285455 0.036705598 0.42991701
0.0026042699 0.0369046 0.42936
0.00210837 0.0371029 0.42880201
0.00210881 0.0376033 0.42888999
0.0021086601 0.037354399 0.42886099
0.0021089499 0.037852202 0.42891899
0.00186135 0.038318701 0.428626
0.0021086601 0.038093399 0.42886099
0.00161453 0.038549099 0.42844999
0.00186123 0.0365928 0.428597
0.00136932 0.039065301 0.42871401
0.00136886 0.038805801 0.42856699
0.00186135 0.038564902 0.428626
0.00210881 0.038342301 0.42888999
0.00112366 0.039084099 0.42891899
0.0028516301 0.036914699 0.42947701
0.0031014499 0.0364586 0.42991701
0.0031008101 0.036697999 0.429829
0.0023564 0.0371309 0.42912501
0.0026032 0.037136 0.42918399
0.00309933 0.036927301 0.42962399
0.0028500699 0.037140999 0.42924201
0.0023562401 0.037374798 0.429095
0.0023559199 0.0376161 0.429037
0.0023560801 0.037865199 0.429066
0.00235576 0.038106401 0.42900699
0.0018614799 0.0388138 0.428655
0.00210881 0.038588699 0.42888999
0.00235576 0.038352799 0.42900699
0.00161442 0.039038599 0.42842001
0.00161431 0.038789898 0.42839101
0.00186174 0.039065301 0.42871401
0.00161531 0.039306201 0.428655
0.00137054 0.039346602 0.429095
0.00210881 0.038835 0.42888999
0.00260142 0.038342301 0.42888999
0.00235576 0.038599201 0.42900699
0.0030976399 0.037153699 0.429389
0.0033460599 0.036680501 0.42962399
0.0033456001 0.036922202 0.42956501
0.0026024899 0.037372299 0.429066
0.00334491 0.037161399 0.42947701
0.0026021299 0.0376136 0.42900699
0.0026023099 0.037862599 0.429037
0.00260178 0.0381012 0.428949
0.00186161 0.039308898 0.42868501
0.0021089499 0.039084099 0.42891899
0.00260142 0.038588699 0.42888999
0.0023559199 0.0388483 0.429037
0.0021080901 0.0393143 0.428743
0.00186161 0.039555099 0.42868501
0.0023562401 0.039100099 0.429095
0.0026010701 0.038829699 0.42883101
0.00284578 0.038316101 0.428597
0.0028452 0.0385544 0.42850801
0.00284597 0.0380725 0.428626
0.00334331 0.037390102 0.429272
0.0035915601 0.036914699 0.42947701
0.0035915601 0.037161399 0.42947701
0.00359009 0.037392698 0.42930099
0.00284597 0.037580099 0.428626
0.00284597 0.0378263 0.428626
0.00210765 0.039552402 0.428655
0.00235657 0.039352 0.42915401
0.0026008899 0.0390734 0.42880201
0.00235399 0.039555099 0.42868501
0.0026012401 0.039325099 0.42886099
0.0028452 0.0390466 0.42850801
0.002845 0.038797799 0.42847899
0.0030921299 0.038564902 0.428626
0.0030921299 0.0380725 0.428626
0.00309234 0.038321301 0.428655
0.0030917099 0.038805801 0.42856699
0.00309298 0.037836701 0.428743
0.00359009 0.037639301 0.42930099
0.00383689 0.037395298 0.42932999
0.00334034 0.0376033 0.42888999
0.00383689 0.037641902 0.42932999
0.0035898399 0.0378833 0.429272
0.00284558 0.037328798 0.42856699
0.00309277 0.037587799 0.42871401
0.00309255 0.037338998 0.42868501
0.0026005299 0.039560601 0.428743
0.00284539 0.039295401 0.42853799
0.0026007099 0.0398096 0.42877299
0.00284461 0.039530799 0.42842001
0.0030919199 0.039054699 0.428597
0.0030919199 0.039300799 0.428597
0.0033396599 0.038827099 0.42880201
0.0033401099 0.038586002 0.42886099
0.00334034 0.038342301 0.42888999
0.0033401099 0.038093399 0.42886099
0.00334057 0.037852202 0.42891899
0.0033398899 0.039076 0.42883101
0.0040837298 0.037644401 0.42936
0.0038371501 0.037891101 0.42936
0.00358935 0.038124699 0.42921299
0.0040817801 0.037872899 0.42915401
0.0038361 0.038127299 0.42924201
0.00284695 0.0398096 0.42877299
0.0030921299 0.039549701 0.428626
0.0028475299 0.0400641 0.42886099
0.0030919199 0.039793201 0.428597
0.0033401099 0.039325099 0.42886099
0.00334034 0.039574102 0.42888999
0.0035876301 0.039092101 0.42900699
0.0035873901 0.038842998 0.428978
0.0035878799 0.038601901 0.429037
0.0035886101 0.0383633 0.42912501
0.00358812 0.039343901 0.429066
0.00383453 0.0383581 0.429066
0.0045743799 0.037870299 0.42912501
0.0040781498 0.038085502 0.42877299
0.0043246802 0.038088199 0.42880201
0.0043246802 0.037841801 0.42880201
0.0030942501 0.040069599 0.42891899
0.00334057 0.040069599 0.42891899
0.0033410301 0.039828598 0.428978
0.0035878799 0.039587598 0.429037
0.0038332201 0.039576799 0.42891899
0.0035886101 0.0398423 0.42912501
0.0038334799 0.039333101 0.428949
0.00383374 0.0390894 0.428978
0.0038347901 0.038853601 0.429095
0.00383453 0.038604502 0.429066
0.0040770299 0.038321301 0.428655
0.0040775901 0.038572799 0.42871401
0.0050676102 0.037872899 0.42915401
0.0048211501 0.037872899 0.42915401
0.0048211501 0.038119402 0.42915401
0.0045743799 0.038116802 0.42912501
0.0043240902 0.038329199 0.428743
0.0043237898 0.038572799 0.42871401
0.0045725 0.038347598 0.428949
0.00383269 0.0400641 0.42886099
0.0035891 0.040094201 0.42918399
0.00383296 0.0398205 0.42888999
0.00407591 0.039541598 0.42853799
0.00407591 0.039787799 0.42853799
0.0040761898 0.039298099 0.42856699
0.0040761898 0.039051998 0.42856699
0.0040773102 0.0388164 0.42868501
0.0043235002 0.0388164 0.42868501
0.00506726 0.038116802 0.42912501
0.0050662202 0.0383555 0.429037
0.00531225 0.038106401 0.42900699
0.0048227999 0.038379099 0.42930099
0.0045725 0.038594 0.428949
0.0043231999 0.03906 0.428655
0.0045718802 0.038835 0.42888999
0.0048218099 0.0386177 0.42921299
0.0040750802 0.0400257 0.42844999
0.0038308599 0.040291101 0.428655
